ncols        185
nrows        63
xllcorner    212862
yllcorner    2561977
cellsize     20
NODATA_value  0.000
651.800 649.240 644.490 638.370 635.390 627.420 604.070 589.860 584.680 589.140 581.660 569.160 555.890 547.860 532.060 514.150 512.270 515.390 509.710 500.480 502.620 504.400 504.420 502.510 498.430 489.400 481.810 473.120 462.450 450.480 444.270 439.830 441.510 435.280 429.760 426.220 417.430 417.160 410.780 408.310 411.650 408.910 404.100 392.790 385.580 383.970 375.040 370.900 371.370 370.790 370.180 371.890 373.720 377.820 384.540 390.700 396.790 407.800 412.140 414.750 416.400 418.750 413.130 398.360 389.860 387.250 389.580 394.910 394.230 393.240 393.910 399.910 417.670 424.550 437.850 451.270 459.090 463.170 473.930 485.330 488.170 494.540 504.740 516.910 526.880 539.300 551.000 560.120 567.290 574.250 575.550 576.960 578.290 581.980 592.420 600.890 603.940 614.610 621.840 629.670 633.820 636.050 636.220 636.360 638.420 642.870 648.780 658.800 668.720 679.310 690.650 700.540 709.580 719.030 728.320 739.640 748.720 758.450 769.470 780.090 787.100 794.280 799.830 826.050 841.540 856.270 870.420 891.570 908.610 926.840 942.860 952.980 959.720 961.150 955.410 941.680 927.960 921.240 919.590 920.800 924.940 924.490 917.140 909.480 903.510 901.710 900.060 885.450 871.830 862.770 872.230 893.940 913.630 930.630 948.110 963.470 1013.500 1040.300 1056.700 1073.300 1088.300 1099.600 1112.100 1121.900 1134.200 1141.600 1147.700 1157.100 1168.100 1180.400 1186.300 1192.600 1205.100 1215.200 1222.300 1237.400 1250.300 1254.900 1260.900 1267.200 1273.700 1275.900 1275.700 1279.900 1287.000
638.140 634.740 634.790 630.800 624.470 620.900 604.830 589.030 574.210 570.830 568.710 555.670 544.530 533.940 524.120 502.660 499.110 503.480 496.160 483.560 484.010 493.450 493.090 492.560 488.500 483.550 478.970 470.360 458.900 448.220 442.180 437.040 434.700 430.790 428.450 425.590 413.920 414.540 409.300 406.450 408.630 407.190 401.750 396.500 389.110 375.220 370.210 370.790 371.030 370.300 371.130 372.940 374.690 381.950 388.210 393.200 409.250 419.640 425.190 427.010 430.270 429.180 421.930 405.720 395.480 390.100 388.550 390.120 391.280 391.750 393.240 397.360 412.360 427.590 443.050 457.240 461.720 464.960 474.070 482.810 484.140 493.750 503.230 512.160 520.630 527.980 537.190 550.330 558.410 564.510 568.680 574.620 576.540 581.530 593.380 601.050 606.410 613.610 620.030 627.150 633.180 636.710 638.400 638.500 638.910 642.270 647.180 656.760 668.280 679.880 691.450 701.450 709.680 717.220 726.380 736.670 748.000 761.490 771.990 781.720 792.620 802.320 813.770 836.430 858.030 874.570 895.610 914.970 936.060 955.490 972.540 984.550 991.510 997.890 988.680 977.730 967.330 960.240 956.600 948.340 945.610 940.850 928.750 919.190 912.300 912.590 907.450 895.430 881.780 874.510 895.220 913.000 926.040 947.810 966.900 985.920 1025.700 1043.800 1060.700 1076.700 1088.400 1098.200 1108.400 1116.900 1125.800 1131.900 1140.900 1149.100 1160.700 1167.800 1173.500 1181.600 1198.800 1209.200 1217.600 1229.100 1248.200 1258.500 1260.400 1266.600 1276.200 1282.900 1284.100 1286.900 1293.900
626.220 625.480 625.080 619.840 615.800 610.990 604.610 589.490 575.930 558.470 552.260 544.670 534.740 523.210 514.430 497.440 484.260 492.090 485.810 475.780 475.310 480.330 484.370 483.440 479.810 476.800 473.420 465.650 454.410 444.810 439.150 434.920 431.420 427.850 425.800 421.330 413.140 411.260 408.500 406.350 405.080 403.160 398.140 392.850 377.630 370.100 370.590 371.130 370.740 370.030 371.960 373.840 378.070 386.850 392.050 401.470 425.540 429.220 433.530 438.440 441.750 440.520 432.890 421.170 404.800 394.870 391.440 389.190 391.120 394.210 395.280 395.420 414.920 430.830 445.540 457.460 461.680 465.660 473.580 478.140 480.730 496.290 504.440 509.610 513.230 515.630 520.270 530.200 542.200 553.710 562.400 569.490 573.590 579.930 592.230 602.090 607.190 610.510 617.250 623.790 630.570 635.460 639.720 640.910 642.540 644.690 647.850 655.790 668.700 680.350 691.440 701.780 709.980 717.540 728.390 741.180 752.570 764.110 771.720 782.630 794.850 817.010 835.300 854.060 876.290 895.180 916.060 937.120 956.370 968.940 978.400 987.770 994.530 1004.300 1010.700 1005.200 1000.300 995.990 990.990 981.990 968.150 957.090 941.900 927.440 922.260 923.870 919.330 906.730 892.680 894.530 911.570 928.660 943.320 964.160 991.150 1011.000 1027.600 1040.000 1056.100 1069.700 1081.900 1090.200 1098.000 1105.400 1112.300 1122.100 1135.700 1146.500 1151.600 1161.100 1166.400 1173.700 1190.700 1203.100 1212.100 1222.200 1241.400 1257.000 1266.100 1269.300 1274.000 1284.300 1290.000 1292.900 1297.400
615.460 612.420 614.220 609.540 604.660 602.040 595.520 580.540 566.210 551.110 533.090 530.500 527.230 520.510 508.340 492.980 472.920 474.810 474.830 468.580 469.940 474.580 475.780 474.600 471.270 468.150 465.230 458.390 448.320 439.840 433.980 430.710 428.010 424.330 421.550 415.680 411.900 410.630 406.170 404.800 400.310 396.820 393.480 379.770 371.350 370.340 370.800 370.980 370.450 370.510 372.750 374.820 383.590 391.360 394.750 418.160 432.350 438.730 442.060 448.980 450.820 450.580 447.700 439.320 424.500 408.150 397.840 395.020 395.620 398.850 404.510 399.660 419.550 432.320 444.400 452.640 455.300 458.400 465.170 471.190 478.180 492.500 495.830 497.290 499.730 503.500 509.750 514.460 523.670 538.890 553.560 562.650 570.960 579.120 587.850 596.510 606.410 610.150 613.510 621.620 630.270 635.050 641.900 644.170 646.160 647.980 650.780 657.660 667.890 679.780 691.000 701.790 710.290 719.580 731.190 741.810 752.250 765.350 779.210 796.240 812.570 841.150 879.780 887.720 898.060 914.850 933.510 946.660 957.440 965.340 973.590 981.720 988.990 998.340 1010.300 1019.500 1022.300 1017.300 1011.500 1002.200 983.540 964.080 946.750 937.560 935.120 935.520 931.490 923.000 909.510 908.280 924.710 940.560 953.980 991.110 1011.000 1026.200 1035.600 1044.000 1052.100 1060.700 1072.000 1081.800 1087.000 1093.800 1105.200 1118.800 1131.000 1140.600 1147.100 1150.300 1162.700 1169.200 1182.800 1197.000 1207.700 1218.700 1234.900 1250.400 1264.000 1274.000 1278.800 1284.200 1291.900 1296.600 1300.300
604.700 600.620 597.960 598.250 594.640 591.670 577.360 572.570 565.250 548.620 525.850 511.110 508.880 503.900 498.540 487.490 467.540 463.510 468.100 459.540 461.650 460.550 463.670 463.450 460.650 460.260 457.220 452.410 442.060 432.170 428.470 426.270 423.100 419.130 417.660 412.210 411.050 407.330 403.390 401.410 398.790 395.790 387.350 375.330 370.140 370.540 370.950 370.720 370.270 371.350 374.330 380.870 389.940 393.890 411.330 430.960 442.540 449.750 455.830 461.690 463.840 463.430 460.800 455.700 446.690 427.260 414.660 409.470 408.770 412.470 416.060 403.310 423.860 429.410 437.350 442.550 440.420 443.550 449.390 456.170 470.290 477.680 477.760 477.970 483.470 494.620 510.470 523.540 532.270 538.960 552.110 563.860 573.440 579.820 588.030 595.770 607.320 614.870 621.080 628.740 633.930 642.020 646.960 649.290 653.600 658.090 662.670 666.100 670.810 678.070 689.780 700.780 711.530 723.600 733.310 742.840 755.360 774.580 797.340 827.670 876.260 887.850 901.280 912.210 920.900 931.020 935.780 940.900 948.470 957.200 962.960 971.380 980.140 992.680 1006.800 1018.100 1027.800 1027.800 1024.600 1010.600 992.030 969.750 954.040 948.780 946.820 945.670 941.880 933.580 927.160 922.730 936.390 957.530 977.870 1001.600 1017.400 1031.600 1042.300 1052.300 1060.900 1067.300 1072.100 1078.500 1082.900 1089.900 1100.800 1113.300 1124.300 1134.000 1139.500 1144.800 1159.300 1167.500 1176.800 1193.000 1205.000 1215.700 1227.800 1238.800 1257.100 1272.900 1282.900 1287.100 1291.700 1297.300 1305.800
594.310 591.480 588.910 585.690 583.180 582.800 565.590 559.400 552.870 538.040 525.520 505.060 491.540 485.990 477.530 475.010 466.730 452.280 456.440 455.500 453.200 452.480 451.340 450.940 451.460 452.780 447.210 440.150 432.840 426.760 424.990 423.410 420.020 417.830 415.380 409.410 410.490 404.250 402.170 399.670 394.720 391.150 378.310 370.430 370.310 370.680 370.850 370.470 370.080 373.490 378.540 386.940 392.550 405.820 431.130 446.500 453.210 459.720 469.020 475.190 478.450 477.010 473.260 468.300 462.100 445.820 432.230 426.750 424.490 427.400 424.490 411.910 412.280 426.010 432.040 430.090 439.050 445.270 450.330 454.430 457.570 461.120 467.480 476.900 488.410 498.250 514.360 529.740 544.400 556.540 568.350 574.660 580.020 583.700 588.020 596.560 607.380 617.660 627.160 632.980 640.040 649.790 661.210 673.590 678.590 680.350 684.160 690.640 695.470 702.050 711.050 717.310 723.260 733.850 744.110 759.790 778.270 800.760 837.360 868.440 880.740 890.140 898.940 907.830 913.280 918.390 924.810 932.400 940.680 945.740 952.110 962.170 972.840 988.300 1003.700 1015.100 1030.300 1032.800 1029.100 1018.500 997.070 977.100 966.030 961.970 959.670 957.180 952.810 944.100 937.200 933.460 945.890 970.320 997.410 1009.100 1020.300 1031.600 1041.700 1055.000 1067.500 1076.000 1080.000 1085.800 1090.400 1092.800 1094.800 1104.400 1114.200 1126.300 1133.100 1141.500 1149.300 1162.500 1173.800 1188.200 1202.800 1212.700 1223.000 1237.200 1252.800 1267.400 1282.300 1291.200 1293.500 1298.800 1309.400
590.560 582.240 579.160 575.860 575.840 575.470 562.550 545.700 532.940 518.990 509.650 499.800 489.860 477.350 463.590 461.930 461.570 448.970 448.830 451.860 449.860 447.040 443.150 441.670 444.820 444.290 436.020 433.150 428.760 424.680 420.930 418.570 414.730 413.630 411.670 406.510 408.540 404.470 401.500 398.040 394.370 379.850 373.440 370.180 370.480 370.800 370.630 370.270 371.350 377.520 385.750 391.850 396.180 419.680 449.310 461.770 467.510 472.950 482.070 489.660 494.940 496.450 493.030 485.390 479.210 463.340 449.050 448.050 444.980 447.400 439.580 423.350 414.660 417.570 423.220 441.900 451.690 454.290 454.720 462.280 472.450 475.750 479.830 489.420 497.670 509.540 526.660 538.920 553.770 574.450 585.030 587.280 588.730 589.630 591.820 593.860 604.400 616.010 627.460 634.680 646.660 660.890 674.130 685.450 692.980 702.030 709.060 715.830 725.670 732.590 740.860 749.270 757.070 769.750 780.400 797.400 826.040 839.770 855.740 864.810 872.790 884.970 894.830 899.760 907.190 912.950 921.430 928.190 934.960 940.970 946.390 956.020 967.720 980.790 998.430 1010.400 1025.600 1033.500 1035.400 1027.200 1010.700 1000.100 988.930 978.570 975.270 971.330 967.130 957.230 947.220 943.450 955.320 972.600 997.390 1006.600 1015.500 1026.700 1036.400 1048.500 1062.200 1069.600 1072.900 1077.700 1091.200 1096.900 1100.400 1110.300 1117.000 1122.100 1132.300 1141.200 1147.900 1157.100 1170.500 1184.500 1200.000 1209.900 1219.300 1231.200 1248.400 1260.900 1273.800 1290.400 1292.300 1296.200 1308.500
594.770 584.980 575.610 568.090 566.470 570.270 562.130 548.910 525.560 507.030 497.450 485.980 479.160 476.210 466.240 452.440 451.970 447.050 441.830 445.010 445.610 442.090 439.040 437.580 439.510 435.890 431.340 429.630 426.240 422.870 419.260 414.830 411.380 410.150 407.080 406.390 406.480 402.380 398.010 393.570 388.220 376.490 370.090 370.330 370.610 370.700 370.430 370.110 374.130 383.900 391.500 396.030 406.750 423.550 455.630 473.090 480.710 486.080 496.210 499.720 507.920 517.840 515.980 503.080 491.680 477.070 471.540 471.220 470.520 462.760 452.470 438.380 430.710 425.950 423.470 431.000 434.060 439.670 445.490 450.960 464.810 480.050 488.960 499.010 509.450 523.510 536.530 546.950 558.440 573.550 587.860 596.960 601.620 602.970 603.900 604.830 607.310 614.270 623.020 636.520 648.920 664.200 678.870 691.120 699.350 710.800 718.710 727.920 737.410 746.800 762.330 779.370 791.600 802.880 814.790 826.980 837.610 843.700 854.440 862.640 871.680 881.690 891.150 894.820 900.710 908.660 917.700 925.580 932.670 939.010 943.950 949.980 963.010 974.050 991.090 1005.500 1018.000 1030.500 1035.000 1033.200 1025.500 1015.900 1007.600 1000.400 990.510 986.190 982.670 974.830 961.070 953.430 961.360 975.720 988.250 1000.900 1008.300 1016.800 1027.100 1041.300 1053.400 1058.700 1066.100 1076.400 1091.100 1099.200 1110.000 1120.200 1128.900 1133.700 1140.000 1146.200 1157.800 1171.000 1176.600 1181.600 1195.900 1206.000 1215.500 1229.400 1240.500 1256.800 1274.600 1290.700 1293.500 1297.200 1306.000
599.300 589.470 573.620 561.300 556.850 558.840 552.750 542.680 528.430 512.420 500.040 486.400 474.840 468.980 458.630 448.840 446.730 446.460 441.210 434.160 441.110 437.510 435.050 435.240 434.860 428.750 426.840 424.800 421.960 419.630 416.800 413.310 408.900 405.040 403.570 405.860 403.700 398.910 393.970 390.010 378.840 370.020 370.210 370.440 370.710 370.500 370.240 371.010 378.510 389.090 394.510 415.980 426.690 429.760 451.580 464.160 482.500 499.450 512.550 517.050 527.230 535.600 525.410 505.170 492.100 486.580 487.800 486.980 477.930 470.350 463.430 453.940 443.900 436.830 432.560 429.610 441.010 452.230 457.180 456.190 462.860 478.070 494.320 507.770 519.000 529.480 544.420 556.080 568.020 577.130 585.550 597.800 608.800 611.940 613.160 614.690 617.880 621.790 630.290 636.420 647.470 664.070 679.690 692.260 702.660 715.210 724.730 735.370 746.380 756.940 772.100 785.270 794.480 805.210 815.210 824.560 833.590 841.310 849.640 861.410 869.180 876.250 881.720 884.870 892.130 902.390 912.170 921.900 930.120 936.550 941.850 947.220 959.250 968.580 984.160 1000.500 1012.100 1021.300 1028.900 1033.100 1029.800 1025.900 1015.100 1007.800 1002.500 999.390 996.150 986.520 975.850 964.520 964.670 983.380 999.290 1010.800 1017.700 1027.200 1034.400 1040.500 1047.700 1058.500 1069.000 1081.400 1093.200 1105.000 1118.400 1127.900 1135.600 1147.200 1155.600 1162.200 1175.500 1182.500 1190.000 1195.300 1199.800 1208.100 1217.400 1227.400 1241.200 1260.900 1279.000 1288.600 1298.600 1308.600 1315.100
610.370 595.460 582.560 566.930 547.600 544.010 531.930 531.080 529.210 515.390 507.720 498.190 479.710 468.350 454.730 446.840 441.450 440.340 437.140 431.610 436.870 432.350 429.700 428.360 426.520 424.040 422.510 419.780 418.050 415.700 413.390 411.230 407.000 403.530 401.700 402.840 402.030 396.430 390.650 379.590 372.920 369.740 369.720 370.530 370.590 370.350 370.110 374.180 382.570 392.020 400.310 429.700 443.620 444.700 452.630 469.190 497.610 515.060 524.230 533.570 543.490 543.870 530.240 511.650 504.160 500.390 497.620 487.680 484.010 481.060 477.470 471.680 462.720 455.860 445.280 436.290 441.970 456.920 468.910 468.830 471.020 479.820 494.120 511.050 523.820 534.380 546.630 561.130 575.780 584.900 591.060 599.650 608.610 619.410 625.600 631.220 637.090 643.370 644.560 644.910 647.800 663.060 679.250 692.090 703.810 717.600 730.110 739.420 748.930 762.730 771.710 782.160 791.220 800.330 809.230 816.700 824.920 835.810 845.730 857.690 864.690 868.040 870.990 875.170 884.170 898.050 908.140 916.990 926.120 933.210 939.080 944.270 953.980 964.880 977.170 994.140 1007.600 1015.500 1020.800 1018.100 1020.600 1023.500 1025.000 1019.800 1016.500 1012.900 1007.300 998.790 988.250 978.280 976.680 986.930 1010.300 1023.500 1033.400 1039.400 1046.400 1053.500 1058.300 1062.600 1069.600 1083.400 1096.500 1110.600 1125.300 1134.900 1145.000 1157.000 1168.700 1180.600 1187.500 1199.400 1206.100 1212.400 1218.900 1220.600 1225.800 1232.400 1244.400 1259.500 1275.100 1287.900 1301.100 1312.700 1322.200
604.400 591.550 575.550 562.120 547.430 531.890 517.370 515.070 524.830 522.360 507.360 502.010 493.850 478.630 465.580 453.250 445.980 438.710 433.610 427.920 428.270 423.930 422.660 422.490 421.820 420.800 418.810 417.160 415.430 412.670 410.150 407.450 403.600 401.180 399.770 399.140 397.440 390.010 379.490 374.460 369.750 369.190 369.000 369.330 370.530 370.280 370.020 378.120 387.080 394.500 420.380 445.680 458.510 459.120 459.440 472.520 500.090 520.460 532.510 546.400 553.720 551.090 536.240 522.950 514.090 510.200 502.690 498.740 495.980 492.310 488.870 484.300 477.260 467.530 455.810 444.770 439.180 452.210 465.870 478.820 481.150 487.640 499.450 512.990 524.960 535.980 547.290 561.940 575.910 589.460 597.350 605.520 615.030 623.850 632.800 635.340 641.720 653.520 658.840 658.310 658.430 663.220 678.180 691.240 703.150 719.090 732.960 741.360 749.230 761.540 768.480 774.650 783.210 793.210 803.060 811.510 818.540 828.920 840.160 848.670 853.420 857.030 861.540 866.730 878.270 891.350 904.470 913.610 921.660 928.920 936.290 942.740 949.640 962.920 973.200 988.320 996.700 1001.900 1004.800 1005.100 1011.200 1015.600 1018.000 1021.100 1032.000 1024.300 1016.800 1009.000 1000.800 995.720 993.080 992.290 1009.400 1033.800 1050.100 1056.100 1060.600 1066.200 1070.100 1073.100 1076.700 1086.700 1100.400 1114.900 1127.200 1138.800 1151.300 1163.000 1180.400 1186.700 1201.100 1209.000 1216.600 1222.200 1228.600 1231.800 1237.500 1245.900 1251.600 1261.200 1272.200 1289.100 1304.700 1314.500 1323.100
590.790 576.700 562.240 548.960 531.870 516.130 502.060 504.860 514.230 513.650 498.170 488.150 491.430 493.380 477.960 465.560 455.650 446.610 438.450 426.040 421.900 416.410 415.870 415.990 416.740 415.980 414.210 413.610 411.210 409.140 407.190 404.220 400.230 397.030 397.270 395.920 389.860 379.090 374.460 369.970 369.250 368.630 367.980 368.820 370.070 370.150 374.970 383.980 392.080 409.630 439.170 465.770 473.890 476.610 477.960 480.470 496.960 514.930 529.260 539.870 557.990 555.970 542.390 531.740 523.580 518.670 511.010 507.850 505.250 502.080 499.950 495.700 490.280 480.490 467.840 455.950 451.740 447.750 460.160 473.200 493.390 499.130 509.460 517.520 527.630 538.440 549.150 561.920 574.030 585.710 596.120 614.570 623.170 633.410 640.830 643.280 645.000 653.440 666.180 668.840 670.950 673.290 676.130 690.070 701.940 718.420 732.400 739.450 746.500 754.310 762.340 767.600 774.270 786.420 797.590 805.820 814.370 821.450 829.310 833.570 839.240 845.870 851.430 856.920 869.130 883.180 898.670 909.110 916.840 924.730 933.810 942.990 951.340 961.900 972.060 973.990 981.640 986.820 992.680 993.790 998.370 1004.200 1010.600 1016.200 1022.600 1038.200 1030.500 1023.500 1017.500 1013.000 1011.000 1011.200 1015.800 1036.900 1052.800 1066.700 1072.600 1078.100 1085.000 1089.700 1092.900 1097.800 1106.700 1121.200 1133.900 1145.300 1158.100 1171.400 1183.800 1199.800 1207.900 1216.200 1220.600 1231.300 1238.300 1243.900 1252.700 1260.100 1268.400 1276.100 1282.700 1295.900 1310.100 1320.300 1329.500
577.310 564.130 551.860 541.970 529.390 512.890 498.660 489.600 496.960 498.960 496.520 474.870 474.290 482.570 487.510 477.370 470.580 460.180 447.480 426.370 419.480 413.810 408.050 407.990 406.760 408.340 409.520 409.280 407.630 406.250 403.890 399.880 397.380 393.200 392.860 387.830 378.320 374.170 370.800 369.090 368.000 367.380 366.810 368.610 369.480 371.760 382.770 390.610 398.360 424.110 443.930 468.160 479.450 492.670 495.560 494.890 501.700 518.240 539.650 549.010 561.290 564.430 555.240 545.100 535.150 527.740 523.280 518.840 515.330 512.350 510.170 506.860 503.210 494.690 480.640 469.460 466.990 457.700 457.490 474.470 490.790 506.670 518.820 525.910 534.850 543.370 551.760 565.890 577.120 585.660 601.060 615.330 624.040 634.340 642.080 651.940 657.080 661.690 669.480 681.980 694.130 697.970 693.370 690.020 699.570 713.230 727.350 734.110 740.200 746.120 752.270 760.530 767.760 778.990 787.530 799.320 806.220 813.030 817.390 821.690 829.430 835.870 840.910 845.630 853.480 871.200 889.210 905.030 913.900 923.570 933.430 943.900 952.280 961.620 962.620 965.660 968.600 976.540 983.460 983.920 986.630 993.480 1002.200 1014.300 1023.000 1033.300 1046.000 1039.500 1035.400 1030.600 1029.600 1030.300 1034.200 1041.900 1057.500 1070.800 1087.600 1095.700 1102.700 1108.100 1110.100 1111.800 1115.900 1124.700 1138.000 1153.300 1166.700 1180.900 1191.900 1205.000 1212.300 1217.500 1227.600 1237.000 1246.400 1255.000 1262.900 1271.700 1280.900 1286.900 1294.100 1304.600 1318.700 1328.100 1336.700
580.590 564.330 549.760 540.210 528.170 512.790 495.550 483.370 481.370 484.140 479.950 470.390 456.120 464.350 475.780 489.800 483.120 475.700 454.820 424.490 409.670 407.180 406.770 405.160 403.310 402.440 402.940 404.220 403.150 400.950 398.960 397.220 394.770 388.160 385.090 377.230 373.820 371.230 369.340 368.240 367.110 366.130 365.830 367.750 369.720 379.080 389.070 394.470 415.220 436.390 457.100 470.450 478.840 490.090 500.940 504.370 513.020 523.710 533.660 541.810 557.050 570.940 564.280 557.590 551.640 542.160 535.040 531.770 528.260 524.390 521.080 517.710 513.680 506.580 493.840 482.020 474.130 462.520 459.780 478.310 492.140 508.520 522.890 533.880 542.380 553.550 558.780 563.000 578.540 591.660 603.400 610.430 617.580 630.630 639.890 648.230 663.150 668.010 672.780 686.170 694.480 707.030 711.910 709.000 706.860 708.490 717.540 724.640 730.280 736.780 743.720 750.300 757.750 765.490 773.220 780.420 791.560 801.320 806.760 812.350 817.710 824.230 832.300 839.710 847.570 867.310 886.940 903.790 914.490 924.760 935.220 943.690 950.280 952.610 954.920 961.700 964.440 970.170 974.870 974.150 976.100 984.720 996.180 1005.800 1018.800 1031.200 1047.300 1053.800 1055.000 1049.600 1045.800 1041.800 1051.200 1057.000 1065.800 1080.700 1097.200 1107.900 1113.800 1108.500 1119.700 1122.300 1126.900 1131.700 1140.900 1156.900 1173.200 1186.700 1202.200 1208.200 1217.500 1227.100 1233.100 1242.200 1251.300 1259.200 1266.300 1275.900 1286.100 1294.200 1303.700 1316.400 1326.900 1336.400 1344.600
587.890 573.190 559.180 547.680 532.850 511.840 497.510 480.070 469.270 466.620 465.290 459.640 454.650 449.790 462.760 476.750 490.170 478.330 456.040 430.140 412.320 402.170 402.430 402.360 400.870 399.020 398.430 397.850 397.550 397.110 396.140 393.730 387.520 380.270 374.970 373.570 371.500 369.550 368.470 367.370 366.260 365.130 364.770 367.120 372.630 385.120 393.360 412.550 434.910 453.140 467.190 472.870 479.410 487.140 494.570 497.700 506.070 515.670 525.520 530.810 545.330 563.820 576.540 567.110 560.550 556.280 549.310 545.340 541.870 537.450 533.190 529.120 524.970 518.530 506.510 493.510 482.720 473.200 467.970 481.620 492.970 507.630 523.970 537.430 548.560 565.960 571.230 572.400 579.270 586.800 593.680 601.860 612.590 631.420 639.470 649.360 660.230 666.400 673.070 682.320 689.330 697.150 711.470 724.170 726.060 725.860 726.150 727.250 729.330 734.300 738.840 746.700 752.880 757.750 763.740 770.330 773.470 784.100 794.130 800.580 812.170 825.760 837.160 843.610 856.210 877.510 894.210 906.600 906.970 917.960 929.130 940.260 939.380 946.920 953.890 957.510 963.990 971.360 968.540 965.390 964.930 978.180 990.800 999.650 1013.800 1023.500 1031.200 1036.900 1042.500 1048.100 1063.100 1056.600 1063.200 1072.400 1079.900 1092.100 1104.200 1100.900 1101.800 1105.400 1108.900 1114.800 1126.000 1135.300 1146.600 1162.200 1179.700 1192.700 1207.500 1215.400 1225.900 1233.100 1239.900 1245.300 1252.400 1259.400 1266.300 1275.600 1284.100 1292.900 1304.900 1319.000 1330.300 1340.500 1351.500
592.870 578.280 566.820 555.510 537.970 520.640 502.640 489.050 475.580 464.970 451.260 446.210 448.920 439.470 447.510 460.720 473.660 467.900 465.330 450.120 421.630 402.840 397.820 398.580 397.950 395.840 394.650 393.720 393.600 389.440 389.580 390.160 378.870 374.430 373.160 371.740 369.850 368.690 367.560 366.480 365.390 364.380 364.700 369.770 381.830 391.890 404.500 433.640 446.020 463.230 469.130 473.230 477.920 485.260 489.460 492.230 498.900 507.560 511.950 522.040 531.880 556.550 573.060 577.230 573.420 567.690 562.540 558.760 556.060 550.250 545.830 541.690 537.600 531.580 522.630 508.830 496.280 485.220 481.490 487.160 497.140 508.490 524.110 536.010 549.000 564.250 577.650 582.950 588.440 596.190 602.890 612.150 621.510 635.060 641.630 650.510 657.730 662.610 670.320 679.170 685.750 692.630 704.300 718.490 733.620 736.290 736.350 737.200 738.110 740.400 745.510 752.490 759.330 764.000 768.250 772.350 779.180 785.580 792.400 802.610 814.210 826.350 842.650 857.090 872.460 878.990 887.540 893.260 899.830 908.490 918.740 926.140 929.370 942.080 947.110 950.790 958.940 967.730 967.940 964.690 962.510 974.010 987.360 998.380 1006.900 1009.300 1015.700 1022.700 1029.200 1035.600 1048.200 1064.200 1077.700 1088.300 1081.600 1083.200 1084.800 1089.800 1096.700 1103.700 1110.400 1116.500 1126.300 1134.300 1151.100 1173.000 1189.300 1201.500 1211.100 1221.300 1230.900 1238.600 1242.500 1247.500 1253.300 1258.500 1265.300 1272.200 1282.000 1290.700 1299.800 1313.800 1327.300 1338.400 1351.300
596.070 584.920 573.270 560.660 548.520 528.870 515.150 503.030 492.100 475.720 457.730 443.030 436.340 429.910 432.190 442.600 450.770 454.890 459.300 458.960 436.110 410.530 396.480 393.450 394.390 392.870 392.610 391.810 390.290 387.760 385.240 377.780 374.390 373.120 371.710 370.260 368.990 367.830 366.710 365.580 364.580 364.380 367.070 373.960 390.350 398.540 414.390 430.810 451.430 465.480 469.570 473.580 476.240 481.840 485.270 487.160 493.780 501.470 502.140 511.900 527.780 548.030 565.190 572.230 573.940 572.520 574.060 573.790 570.260 564.080 559.070 555.290 550.270 543.810 534.660 525.420 512.610 503.910 498.850 500.730 503.830 511.190 522.680 533.680 547.650 563.120 577.120 582.640 595.580 602.070 609.130 616.040 625.300 631.900 638.300 643.760 648.510 655.440 661.290 668.670 676.130 683.180 692.930 706.460 725.690 736.870 742.350 745.430 745.910 746.930 749.310 758.160 764.670 770.370 773.380 779.040 786.390 792.490 800.810 812.910 825.230 839.310 852.010 860.600 868.800 877.290 879.240 883.450 889.520 898.100 906.910 919.290 924.460 931.730 937.900 942.430 952.040 961.880 962.570 961.090 961.150 968.570 981.420 988.970 993.340 998.300 1005.400 1010.800 1017.500 1025.800 1034.100 1051.800 1059.600 1065.600 1067.900 1070.700 1076.400 1083.700 1089.600 1097.500 1102.700 1113.100 1123.000 1133.800 1148.000 1161.700 1178.200 1192.200 1214.800 1224.000 1233.000 1240.500 1243.900 1249.800 1255.300 1257.700 1263.800 1271.200 1282.600 1293.600 1302.400 1308.500 1318.500 1329.400 1340.000
601.710 589.250 577.050 566.020 555.410 539.930 526.870 516.810 498.850 483.540 468.490 450.450 440.080 431.910 423.800 432.290 430.610 436.080 442.980 449.050 441.740 416.220 398.020 393.640 389.480 389.450 390.570 390.020 386.960 382.330 378.200 374.310 372.990 372.090 370.640 369.180 368.020 366.880 365.780 364.790 364.020 364.950 371.670 385.280 394.120 416.340 432.080 438.060 450.840 465.510 467.040 464.510 462.770 476.070 480.070 482.760 489.190 497.190 496.500 505.210 517.520 538.680 554.170 557.880 559.780 558.730 558.300 558.310 558.730 562.880 567.540 566.190 559.560 552.630 544.390 534.390 525.530 518.650 517.680 518.300 520.010 522.130 524.610 530.130 544.150 557.380 569.840 578.970 586.680 596.180 601.410 610.220 614.680 622.530 629.060 635.160 639.980 644.620 648.810 656.290 665.340 675.610 687.090 698.310 716.350 732.830 741.530 745.920 746.050 746.450 748.160 753.980 765.170 771.040 776.370 785.530 792.670 799.570 810.220 821.840 835.540 847.130 860.180 867.000 870.270 874.480 875.230 879.030 883.920 890.730 900.470 911.500 921.870 929.980 933.820 937.870 946.730 945.830 946.800 948.600 952.400 960.700 970.050 976.240 985.130 991.970 993.290 1000.800 1006.600 1015.200 1027.300 1040.200 1045.400 1051.100 1054.600 1061.300 1069.900 1078.100 1085.900 1092.400 1100.100 1111.200 1119.700 1130.500 1144.300 1158.400 1174.500 1183.300 1198.700 1213.200 1235.200 1241.200 1247.300 1254.700 1259.400 1262.000 1266.000 1274.300 1288.400 1301.300 1299.100 1297.900 1308.200 1318.900 1327.700
612.260 596.830 586.220 573.300 562.830 551.520 534.930 519.270 504.330 490.210 477.420 463.080 448.600 439.110 430.550 420.180 414.980 422.230 431.630 435.220 436.020 423.580 398.900 391.610 390.550 385.580 386.300 383.240 379.830 377.980 375.780 374.170 372.770 371.230 369.900 368.320 366.970 365.840 364.770 363.980 364.270 371.970 386.320 392.500 410.420 431.050 436.900 439.770 444.690 452.530 451.500 449.500 458.480 469.730 474.420 479.760 487.410 491.920 491.570 500.350 515.170 531.460 541.210 543.500 546.260 545.160 545.240 549.000 551.060 551.270 555.320 561.810 564.090 559.120 552.240 544.140 534.220 529.500 529.560 530.880 532.600 534.840 536.500 538.310 543.850 551.110 558.270 567.720 576.780 585.110 595.630 601.000 607.290 616.370 625.080 628.500 632.980 637.930 642.530 648.540 660.010 670.580 680.260 692.660 711.760 728.690 738.170 740.680 741.530 742.200 745.630 753.370 764.190 771.000 778.600 777.620 786.630 795.470 804.980 824.130 835.930 850.250 853.950 864.530 870.540 871.260 872.080 874.690 879.110 886.090 894.790 904.930 913.760 924.080 928.230 930.300 933.260 932.320 932.950 935.640 942.810 949.520 956.770 964.180 973.290 979.800 981.110 989.340 1000.100 1012.900 1024.000 1032.500 1037.700 1045.700 1052.700 1060.300 1067.100 1076.200 1086.300 1093.900 1100.500 1107.400 1115.000 1125.300 1138.900 1150.000 1163.600 1176.800 1188.400 1200.000 1213.000 1227.400 1240.700 1254.600 1264.600 1269.400 1277.200 1284.600 1297.200 1295.200 1289.100 1287.800 1297.900 1307.300 1316.500
630.630 619.630 603.380 590.360 571.550 557.710 543.930 529.360 516.440 501.910 491.030 478.480 464.210 451.260 442.400 431.570 416.270 409.150 418.560 420.410 418.340 413.390 402.990 384.220 388.960 386.480 380.130 381.400 378.080 375.780 374.170 373.260 372.080 370.740 369.080 367.370 365.910 364.730 363.870 364.860 370.330 374.460 388.520 394.970 414.140 417.720 422.840 427.260 430.070 437.860 438.740 438.330 453.860 466.190 474.060 480.410 485.810 485.760 484.090 496.430 512.740 526.940 529.750 531.500 530.750 530.780 533.120 537.030 540.810 541.410 547.910 554.640 556.700 558.530 557.930 552.670 546.330 542.660 544.610 544.710 544.380 546.340 551.410 555.960 559.320 562.800 566.310 567.960 569.680 578.650 587.280 594.850 605.160 612.520 616.660 623.780 628.430 633.090 637.590 645.570 654.360 665.010 676.690 692.100 710.760 724.780 726.580 726.700 731.490 737.990 744.230 751.250 760.110 761.790 768.310 777.080 786.030 792.760 800.500 810.250 823.240 835.990 844.100 851.790 859.130 862.110 864.640 869.820 875.830 881.770 890.790 901.520 908.330 912.090 917.160 921.640 922.000 925.550 928.900 927.640 931.970 937.910 948.030 952.900 960.590 970.920 980.320 986.060 998.960 1011.000 1024.000 1032.500 1039.200 1047.900 1054.100 1060.800 1066.100 1076.300 1084.400 1093.100 1101.400 1105.700 1106.500 1117.700 1133.700 1149.200 1164.500 1173.000 1182.800 1194.900 1211.500 1223.800 1236.700 1249.200 1261.800 1271.400 1287.300 1290.000 1287.400 1282.800 1278.400 1277.500 1285.700 1294.300 1305.000
634.450 638.260 632.990 613.200 589.170 573.020 560.710 549.100 536.190 525.440 513.790 501.550 487.210 472.990 462.900 451.250 428.630 412.470 404.780 403.610 402.410 407.750 399.920 390.750 389.120 387.070 381.190 376.700 377.720 374.240 372.960 372.080 371.200 369.990 367.980 366.190 364.760 363.760 364.780 380.770 391.530 392.410 392.310 395.610 401.640 401.920 407.500 412.530 418.420 423.050 427.840 435.570 446.080 457.280 468.800 476.460 480.240 479.670 481.870 493.720 503.180 508.370 512.470 517.850 519.100 518.610 525.520 529.760 533.890 536.990 538.420 542.100 544.700 551.270 561.880 563.650 559.200 560.000 561.360 559.520 560.790 563.250 566.710 570.610 574.840 578.680 580.770 581.420 580.690 579.170 578.680 588.660 597.530 604.720 608.350 617.810 622.400 630.070 634.360 641.700 649.070 659.950 673.890 688.980 703.570 704.210 698.760 706.470 724.090 732.600 739.600 744.930 754.130 759.450 768.500 776.900 784.700 792.890 800.890 812.130 823.030 829.430 835.080 841.510 846.630 852.130 856.660 863.690 870.010 876.000 885.850 894.770 897.660 899.410 905.630 910.840 917.220 925.870 926.650 921.310 923.350 929.860 935.910 945.710 955.020 964.720 971.980 984.480 997.980 1008.500 1020.600 1031.200 1036.600 1039.300 1041.200 1049.700 1057.200 1067.800 1080.700 1088.800 1092.400 1094.200 1111.000 1121.600 1138.400 1149.900 1157.800 1169.900 1180.100 1194.100 1210.100 1221.900 1235.000 1246.600 1260.100 1268.200 1273.900 1275.900 1271.700 1268.900 1268.600 1269.200 1274.600 1283.800 1294.200
617.560 617.340 613.030 615.030 608.840 593.470 576.530 568.840 561.340 554.150 544.090 529.690 518.040 498.790 477.010 454.080 436.170 420.370 411.560 404.940 397.530 394.530 402.930 400.850 396.950 387.590 377.480 374.960 374.370 375.820 373.830 371.530 370.300 368.370 366.300 364.810 363.930 364.240 368.380 391.450 396.310 401.220 399.970 398.680 397.960 398.340 400.490 408.030 415.550 419.970 426.690 431.970 440.820 447.080 459.420 468.470 475.780 475.100 479.890 489.160 491.890 492.320 496.440 507.040 512.140 522.330 529.420 536.590 542.770 547.850 551.570 555.080 559.560 563.490 567.630 570.760 573.110 574.470 575.690 576.830 577.270 578.030 581.110 584.840 587.860 589.110 589.430 589.020 588.090 586.350 584.200 584.040 589.710 598.260 603.810 610.980 616.790 623.230 631.910 637.740 644.580 651.820 664.450 677.850 685.780 685.500 688.270 695.990 709.520 725.040 732.850 741.380 752.470 761.800 769.790 779.190 790.540 802.250 806.430 814.540 819.490 824.810 829.740 834.670 839.790 844.120 849.280 855.460 862.670 869.870 876.450 881.530 884.630 888.600 897.930 906.960 914.490 923.480 922.090 916.280 916.890 923.230 929.380 940.720 948.940 958.330 967.020 980.680 993.960 1006.300 1011.500 1017.100 1023.100 1023.100 1029.500 1042.400 1050.600 1060.300 1072.100 1075.700 1080.800 1096.400 1107.300 1119.300 1130.700 1142.900 1159.500 1168.900 1177.900 1191.800 1208.000 1219.500 1232.700 1242.700 1255.400 1261.600 1265.200 1260.300 1255.900 1255.900 1260.100 1263.700 1269.600 1280.700 1290.100
605.510 603.600 598.640 596.300 596.030 587.350 574.050 568.970 574.700 573.690 552.970 542.090 526.800 511.750 485.150 462.650 444.210 433.050 423.420 417.080 404.250 389.630 388.190 387.780 385.540 379.570 374.330 372.800 373.970 376.110 376.240 372.290 368.700 366.290 364.700 363.960 363.820 364.820 379.920 394.130 413.930 418.900 415.850 412.660 409.940 408.580 406.450 402.750 409.650 418.090 425.750 430.250 436.140 443.300 452.030 460.610 469.020 469.600 472.090 477.610 478.670 478.600 481.090 496.640 511.300 525.440 530.950 531.490 530.930 534.720 540.930 550.540 561.020 572.410 576.390 577.060 578.620 581.420 585.490 589.220 593.560 596.090 597.550 599.500 600.760 598.700 597.440 596.220 594.730 593.070 590.220 589.490 591.170 596.840 600.940 606.930 614.360 622.370 631.110 637.040 644.520 649.110 653.960 660.850 666.000 674.490 686.940 697.560 711.090 727.190 735.560 742.630 752.000 765.290 770.410 779.810 789.140 798.040 807.980 816.490 824.050 826.640 827.860 828.660 832.370 836.640 841.660 847.150 852.890 858.070 863.570 867.790 873.640 880.350 892.430 902.500 910.870 920.220 920.310 913.820 912.270 916.050 924.920 935.660 944.490 951.920 963.690 978.730 992.970 1002.100 1003.500 1004.400 1009.200 1017.600 1030.500 1038.600 1045.400 1052.300 1055.100 1067.700 1078.600 1090.200 1103.200 1117.900 1129.300 1140.400 1153.600 1161.900 1173.300 1186.600 1202.400 1215.100 1228.600 1238.800 1249.700 1251.600 1254.200 1250.000 1241.800 1246.600 1253.800 1259.400 1266.300 1275.300 1282.400
590.200 586.590 578.980 582.070 584.680 574.410 566.720 560.710 565.360 565.510 553.560 541.100 526.500 510.060 491.940 469.290 456.140 452.680 439.310 424.670 417.790 403.410 392.600 383.740 378.580 374.810 373.700 372.480 371.440 372.560 372.400 368.920 365.960 364.560 363.850 363.670 364.530 373.000 391.360 402.130 428.060 433.320 429.330 425.920 422.140 419.850 417.410 413.450 406.340 408.550 416.040 419.970 428.160 436.410 442.810 452.020 458.220 462.490 461.770 461.500 466.930 471.140 473.550 485.390 505.610 513.910 513.300 511.770 513.180 515.790 522.160 531.700 542.110 553.440 561.630 570.300 577.980 581.570 584.480 591.020 599.800 603.570 607.480 611.680 614.090 612.320 610.500 607.680 604.780 602.690 602.050 602.560 603.930 607.030 612.290 619.050 623.770 630.670 633.960 643.440 653.990 660.170 661.780 662.340 669.990 680.740 691.710 706.000 720.920 735.710 735.930 744.320 752.090 760.810 770.210 784.050 798.910 810.470 816.360 819.170 820.900 821.570 823.400 824.890 826.450 829.820 834.860 838.950 843.570 849.320 854.410 860.530 867.070 877.270 888.720 899.570 906.310 911.350 914.650 909.870 908.340 915.660 924.170 932.310 939.190 948.740 959.700 972.660 988.600 995.860 1000.000 1002.500 1007.200 1017.400 1028.100 1034.700 1036.100 1039.600 1047.700 1061.300 1077.100 1085.700 1101.400 1113.500 1124.800 1133.300 1146.500 1155.100 1168.200 1181.900 1194.200 1209.800 1224.300 1234.100 1239.300 1240.200 1242.600 1233.200 1231.700 1240.600 1248.700 1254.800 1259.500 1266.200 1277.300
571.170 565.420 561.050 567.860 571.090 565.570 562.610 554.770 551.120 548.350 546.870 541.600 530.920 510.880 494.330 479.850 468.300 453.680 432.600 421.770 416.050 404.470 391.200 382.520 374.850 373.570 373.200 372.200 370.990 370.140 367.010 365.210 364.380 363.660 363.620 364.430 370.210 385.830 394.600 414.360 437.400 444.890 439.920 435.720 433.600 431.600 429.210 425.110 419.580 412.970 408.780 409.570 422.960 431.810 436.580 445.020 450.460 450.810 449.250 453.760 459.750 462.500 469.450 478.970 495.800 499.050 498.660 501.940 506.340 507.740 511.130 518.860 526.760 538.660 546.680 550.900 564.140 575.410 576.060 579.400 585.370 593.530 600.520 605.770 615.220 623.820 623.030 621.160 618.200 613.850 612.580 613.530 616.440 620.140 622.820 628.580 636.660 642.490 646.890 650.650 663.570 672.120 673.230 672.070 676.390 685.600 699.170 714.640 720.990 728.740 736.940 747.040 756.710 769.530 777.710 788.950 798.650 806.580 810.110 811.250 812.270 813.040 815.160 817.420 819.230 824.760 828.920 833.020 837.560 845.380 850.040 855.260 862.040 873.380 883.720 886.090 892.490 896.150 897.630 899.600 914.340 922.710 928.410 936.790 942.990 951.380 959.970 970.050 985.100 991.160 994.010 997.610 1001.200 1013.200 1022.100 1027.100 1025.900 1035.500 1046.400 1057.600 1076.100 1082.600 1095.700 1109.000 1113.700 1130.200 1142.400 1152.500 1163.800 1177.900 1187.800 1204.000 1218.600 1224.300 1227.200 1233.200 1230.600 1221.000 1225.000 1232.800 1239.200 1246.100 1252.600 1263.600 1279.300
547.320 546.280 550.420 553.560 556.350 556.500 557.100 549.020 533.770 534.960 534.420 527.950 520.060 505.420 490.480 476.350 461.370 449.070 429.170 419.220 411.750 397.950 384.280 379.600 374.140 373.180 372.100 371.510 370.640 368.000 364.820 363.910 363.090 363.460 364.370 371.100 385.460 389.220 403.210 423.000 440.560 453.180 451.150 446.550 446.390 446.700 445.590 441.570 434.420 430.320 431.080 418.010 409.420 418.590 426.240 430.710 433.950 436.750 444.790 451.970 453.960 457.990 468.370 479.080 484.700 485.470 491.230 494.990 500.290 502.340 504.920 509.870 520.170 529.230 534.530 541.370 550.380 562.480 566.770 569.290 574.350 580.810 587.340 599.410 604.470 612.010 621.540 625.970 627.200 624.400 622.620 624.610 626.810 629.190 634.940 642.980 649.590 657.230 661.020 666.030 676.780 684.790 689.700 691.510 691.640 696.980 707.850 718.320 731.800 738.060 742.420 751.500 759.430 768.170 776.740 783.910 792.900 799.340 802.770 803.120 803.290 803.170 804.360 807.220 811.460 815.660 822.530 826.990 830.770 838.000 842.140 847.070 856.000 865.350 867.480 870.810 876.820 880.000 892.820 906.050 913.300 918.330 927.360 938.640 938.680 946.200 954.780 965.250 978.140 985.460 988.330 991.000 992.730 1000.800 1010.200 1010.200 1026.400 1033.700 1043.000 1052.800 1067.300 1082.100 1091.100 1099.800 1112.600 1126.700 1139.200 1150.100 1162.000 1174.800 1184.700 1201.100 1213.000 1214.000 1218.300 1227.100 1221.500 1212.000 1216.400 1221.200 1229.000 1236.200 1247.500 1261.300 1278.300
527.680 530.180 536.290 542.570 539.210 539.470 542.590 543.040 529.030 521.310 519.040 514.090 507.320 492.490 478.970 461.190 450.300 445.210 428.420 415.520 406.720 392.760 381.920 374.870 372.500 372.780 371.950 370.840 370.020 364.840 364.150 363.460 363.120 363.980 364.930 378.590 385.230 389.560 406.100 422.410 437.590 450.790 460.420 459.800 460.260 463.120 462.890 456.940 448.820 442.750 438.640 429.790 422.110 416.430 413.130 414.500 424.330 431.410 433.680 438.550 444.320 456.960 466.460 474.730 473.400 477.720 485.210 490.910 495.990 498.140 499.190 503.220 513.660 523.720 527.980 535.490 544.870 556.680 556.870 561.930 566.830 572.800 580.010 587.850 594.050 600.550 605.010 608.950 618.670 621.820 632.090 640.210 643.590 646.290 651.780 658.130 663.490 668.880 674.990 680.570 684.000 687.350 692.960 698.480 705.490 709.870 714.210 719.880 729.480 732.160 739.030 747.060 755.870 765.580 770.940 774.580 783.100 791.900 795.030 794.520 794.410 794.620 798.580 803.170 809.470 813.940 817.120 821.540 826.860 834.460 838.380 843.500 846.970 849.380 852.200 864.260 877.020 888.070 895.350 901.280 905.940 913.760 927.180 934.300 931.270 940.190 946.620 958.350 968.640 976.280 980.480 980.340 981.830 995.040 1001.300 1016.200 1027.700 1036.400 1039.300 1049.200 1066.600 1081.000 1089.000 1104.100 1113.800 1124.600 1134.100 1148.800 1157.500 1171.500 1183.500 1201.900 1203.600 1204.100 1210.000 1217.100 1210.100 1201.900 1207.900 1213.100 1219.600 1230.500 1243.100 1258.600 1274.700
517.760 519.630 525.400 528.040 526.370 524.340 529.290 534.030 531.970 512.090 500.740 494.640 489.230 480.630 464.490 448.090 439.640 434.130 424.560 412.150 399.240 392.310 376.010 371.380 371.330 370.650 371.350 369.980 364.890 364.230 363.530 362.820 363.630 364.470 371.180 377.330 381.680 388.280 403.240 418.370 429.690 445.850 458.550 463.000 464.440 466.330 466.940 466.020 465.100 455.970 449.010 443.060 435.340 428.950 424.340 416.970 418.320 418.680 419.600 426.750 442.280 452.890 457.510 460.340 462.470 467.480 475.890 485.040 492.330 495.030 496.380 497.930 503.300 512.730 520.640 528.320 536.520 546.050 549.530 553.170 556.090 564.490 572.930 579.020 584.660 590.830 597.990 602.190 609.260 619.340 631.500 640.390 648.030 655.720 659.540 663.660 668.360 673.660 675.750 675.310 677.260 683.600 689.060 694.360 699.430 706.160 711.390 717.230 727.620 728.060 735.660 743.790 756.530 762.050 763.620 769.270 775.100 783.560 786.200 786.570 788.420 792.040 797.950 802.510 805.840 810.830 814.450 817.740 821.920 825.490 828.550 830.980 833.400 841.630 860.550 868.990 876.140 880.510 881.810 882.380 894.930 910.770 921.080 927.310 927.510 931.970 937.650 952.930 959.230 964.170 967.860 969.780 982.010 990.670 997.360 1004.200 1016.300 1029.800 1038.600 1046.600 1059.900 1075.900 1085.300 1095.800 1104.500 1113.800 1129.000 1143.300 1154.900 1169.400 1181.100 1192.200 1192.500 1194.200 1203.200 1207.400 1199.300 1192.800 1200.900 1207.600 1213.400 1224.300 1238.400 1253.100 1270.700
523.010 511.270 511.510 510.730 509.320 512.830 520.510 529.240 524.870 508.950 489.320 474.470 473.740 472.590 456.730 441.960 435.750 428.490 409.960 405.120 397.170 387.700 371.340 368.610 368.080 369.030 368.910 364.860 364.230 363.600 362.930 363.260 364.090 364.910 374.090 377.880 380.800 386.910 401.850 415.180 427.580 441.100 455.130 462.260 465.290 466.470 467.020 467.500 466.940 465.960 462.350 456.960 447.070 441.780 435.720 430.970 428.320 427.820 427.290 425.110 428.280 439.740 444.550 447.720 450.170 453.650 464.630 477.540 485.750 490.140 491.460 492.500 495.270 501.570 507.010 515.610 526.440 534.030 536.930 543.920 549.020 559.460 566.180 571.350 575.680 578.190 586.280 593.970 602.350 612.220 621.260 631.850 639.550 646.760 655.790 660.150 661.410 662.980 664.850 666.390 671.740 677.670 683.190 687.680 694.060 698.870 704.690 713.840 726.520 726.440 732.400 738.270 748.210 755.890 761.320 766.930 774.920 776.470 777.550 779.980 782.280 787.950 791.650 796.520 800.000 804.260 806.130 809.390 812.350 815.140 818.900 823.490 830.340 842.220 847.540 857.820 858.970 862.320 870.990 887.920 902.700 913.710 922.540 925.800 931.470 938.180 947.030 955.330 961.080 963.880 966.630 969.690 974.590 981.720 989.200 999.950 1007.900 1018.900 1027.800 1039.500 1053.600 1067.200 1076.300 1083.300 1096.200 1113.300 1129.800 1140.500 1154.400 1167.200 1177.000 1181.200 1185.400 1186.400 1199.300 1195.900 1187.200 1185.700 1194.500 1202.200 1206.800 1218.200 1232.300 1246.500 1266.700
527.560 513.910 505.460 498.210 496.970 505.840 514.070 518.270 510.920 499.440 485.690 470.750 459.550 461.130 459.890 443.900 435.790 418.570 405.540 401.260 391.940 383.520 371.110 369.180 366.510 365.980 364.870 364.240 363.590 362.960 362.890 363.680 364.500 368.950 374.970 377.580 381.110 385.260 399.700 412.180 424.410 437.690 451.760 460.640 464.460 465.360 466.540 468.950 468.870 468.590 468.660 468.080 462.570 457.040 451.240 444.420 441.680 440.470 443.060 442.920 437.420 432.240 434.760 438.870 441.290 443.590 448.850 463.460 476.940 482.130 483.560 484.190 485.010 486.190 492.510 504.260 514.380 523.070 532.770 543.760 548.850 553.670 554.800 558.690 564.990 570.310 576.430 586.370 596.420 603.440 611.270 626.140 633.580 639.310 645.540 648.960 649.650 651.640 654.290 660.110 666.650 672.380 677.150 680.680 686.770 692.340 697.450 708.410 722.870 724.080 730.070 740.030 746.530 752.650 758.510 767.190 772.760 769.590 771.200 771.890 775.410 782.540 788.830 790.930 794.940 801.330 804.920 808.150 809.930 810.010 816.980 823.810 832.520 833.600 843.520 856.530 867.860 877.170 887.250 897.540 902.690 907.430 919.120 928.050 935.990 942.380 950.980 956.850 961.160 962.870 966.040 968.200 971.700 975.970 982.840 989.250 999.460 1011.600 1027.300 1043.800 1054.600 1061.600 1070.100 1084.000 1101.900 1117.200 1128.600 1143.300 1155.900 1161.300 1164.800 1169.400 1176.300 1181.100 1190.600 1183.500 1176.900 1178.600 1185.200 1192.400 1201.800 1213.100 1227.000 1243.200 1265.100
532.130 525.640 517.580 505.950 494.290 494.570 503.260 502.180 493.640 484.200 474.270 468.780 458.790 451.950 454.830 451.430 440.570 428.870 412.730 400.740 392.200 382.610 373.980 371.010 366.640 364.770 364.160 363.610 362.980 362.600 363.360 364.130 364.920 371.550 375.180 377.320 379.540 384.530 393.640 410.670 423.780 434.310 442.840 444.780 447.130 455.830 465.620 468.320 471.120 471.060 471.900 472.690 472.400 468.750 462.990 457.020 456.260 460.470 461.590 458.540 455.450 453.970 454.620 456.620 458.020 459.220 457.450 452.980 458.620 470.750 472.260 472.010 472.040 473.060 475.400 490.350 504.220 517.010 530.050 537.650 543.180 547.560 551.030 554.260 559.510 564.750 569.650 582.800 590.040 596.530 602.180 613.500 622.680 630.360 636.580 637.780 638.870 642.530 648.260 653.110 658.590 664.190 669.690 674.500 679.420 684.870 690.960 702.760 717.670 719.880 727.400 734.670 742.080 747.510 751.570 755.820 763.730 763.760 763.310 765.000 770.320 780.160 786.920 794.100 800.010 803.540 806.960 808.980 813.840 817.110 819.900 824.610 837.460 848.850 857.590 865.790 873.610 880.600 890.060 898.830 910.420 917.170 922.350 923.990 934.150 941.930 950.730 955.160 957.830 961.780 965.470 966.620 969.870 976.670 981.680 991.420 1005.600 1022.100 1036.900 1053.100 1062.300 1067.200 1071.200 1089.400 1104.400 1115.700 1133.700 1141.600 1147.500 1151.600 1156.200 1161.900 1167.200 1181.200 1177.400 1171.100 1166.100 1171.900 1178.000 1186.700 1198.600 1211.500 1226.200 1244.500 1270.800
548.270 534.830 529.540 513.660 497.330 482.540 490.240 479.970 472.330 463.740 457.390 452.850 449.830 443.460 442.700 447.780 441.850 438.010 425.080 411.950 400.260 387.740 373.100 367.300 363.780 363.630 362.990 362.870 362.350 363.070 363.830 364.590 369.260 373.100 375.900 377.690 379.340 383.830 391.420 407.060 421.370 430.430 433.890 434.860 437.650 446.600 459.440 471.030 471.610 473.170 473.810 475.590 476.590 476.470 475.500 470.480 471.410 476.870 476.380 474.410 472.140 472.930 476.710 478.440 476.970 476.020 475.800 475.040 475.060 473.490 475.410 477.570 481.090 482.490 480.030 474.960 495.930 516.220 525.770 528.850 535.780 540.880 550.440 551.530 551.500 555.880 562.250 572.630 581.300 588.350 596.140 607.650 616.080 621.890 625.560 627.110 629.390 632.250 639.420 646.320 649.450 652.820 658.340 664.050 670.710 678.950 687.810 701.160 705.660 714.380 721.500 728.730 729.370 734.720 742.930 753.580 763.260 758.330 762.410 769.620 770.870 776.480 781.500 786.980 792.020 800.260 802.120 806.540 810.560 813.530 817.580 823.860 836.130 847.810 857.520 866.980 875.570 882.290 889.020 898.750 906.820 916.900 927.570 932.910 937.880 941.440 946.740 953.370 957.630 960.700 963.670 970.430 976.450 981.730 986.090 993.580 1005.900 1023.200 1037.700 1050.800 1058.900 1071.300 1075.400 1087.300 1102.800 1115.600 1128.700 1137.200 1143.400 1145.700 1150.400 1158.600 1169.900 1168.500 1163.700 1159.100 1157.400 1164.100 1172.700 1185.900 1199.000 1211.500 1226.100 1248.400 1273.900
548.780 539.570 529.530 518.770 497.560 476.880 472.490 463.260 448.730 443.470 440.450 440.110 435.980 435.880 431.760 439.420 446.600 445.280 434.000 420.420 410.360 398.070 374.810 364.290 363.400 362.450 361.980 362.180 362.810 363.560 364.300 365.600 371.350 373.600 376.010 377.390 378.590 379.260 389.230 406.210 418.500 426.880 431.100 432.090 433.960 442.270 458.950 470.870 473.240 474.000 475.370 477.310 478.870 479.620 480.010 480.830 480.970 482.510 484.030 485.550 487.170 488.900 491.270 493.190 495.060 495.870 496.040 494.630 492.990 492.460 493.830 497.570 500.850 501.400 498.900 495.770 488.290 507.440 518.150 524.030 526.620 528.950 536.450 538.320 539.870 545.860 557.030 566.660 575.360 583.090 593.700 602.500 609.810 616.190 619.410 622.560 625.850 627.130 634.250 639.600 642.800 646.300 650.330 657.280 666.340 674.650 684.160 689.350 698.780 703.280 708.300 713.420 720.120 730.530 744.370 744.580 751.430 756.750 762.640 761.720 766.800 775.590 784.210 793.750 799.980 800.680 807.000 811.810 816.060 821.710 826.060 830.340 833.000 846.510 860.810 870.770 877.790 884.280 888.830 897.470 905.210 913.710 923.660 928.780 937.610 942.990 947.940 951.620 956.490 961.470 966.300 971.770 977.250 985.170 991.940 996.210 1007.000 1023.300 1038.500 1050.000 1057.300 1070.500 1078.500 1087.800 1102.200 1113.600 1124.700 1132.900 1140.600 1141.700 1151.200 1161.200 1161.800 1157.400 1152.200 1148.900 1151.200 1161.500 1171.300 1185.300 1199.900 1212.700 1228.200 1253.000 1271.300
545.650 539.440 523.290 513.190 493.840 470.020 461.990 454.490 436.830 424.100 425.900 427.880 427.260 424.810 421.350 429.040 437.470 445.120 441.160 427.570 412.280 388.700 364.750 363.450 362.060 361.400 361.570 362.340 363.290 364.050 364.800 367.490 370.120 374.970 376.470 377.320 378.170 379.130 388.580 404.130 416.500 422.540 427.200 428.550 431.790 441.170 457.880 470.750 473.360 475.590 476.900 478.430 480.890 481.620 481.870 482.250 482.940 484.770 489.100 494.810 501.280 505.550 507.920 510.000 512.410 512.430 511.630 509.870 507.200 507.190 509.550 511.820 512.960 513.560 513.390 511.950 509.550 502.760 504.490 512.330 516.680 518.900 522.480 527.350 533.240 540.420 548.760 559.610 569.300 577.770 587.430 595.500 602.980 609.190 615.040 617.730 620.440 622.730 627.520 633.510 636.510 641.550 646.980 652.800 661.560 669.230 676.010 683.140 688.330 691.670 697.740 705.860 714.690 724.440 734.260 742.980 748.340 752.220 751.830 760.730 771.830 779.580 786.640 793.050 799.770 809.980 816.590 823.380 827.350 831.110 833.050 840.770 847.700 850.500 860.250 870.480 878.320 885.740 891.240 896.140 902.180 908.340 918.240 928.720 937.610 942.940 947.890 954.420 961.460 965.000 968.770 972.760 980.430 988.590 996.730 1002.700 1008.600 1024.700 1040.300 1054.700 1059.600 1069.100 1080.200 1089.400 1099.900 1109.100 1116.000 1127.500 1132.000 1142.200 1153.500 1152.600 1150.500 1145.500 1139.800 1138.000 1148.900 1160.900 1171.500 1184.000 1199.300 1213.800 1231.400 1247.900 1266.600
536.680 536.280 521.920 507.700 487.590 452.470 451.280 440.580 425.880 416.420 417.610 421.300 413.340 418.280 413.900 418.640 426.450 430.220 435.410 416.690 391.290 366.570 362.870 361.610 360.890 361.000 361.750 362.680 363.620 364.510 365.740 367.520 369.320 375.300 376.320 377.450 378.630 379.770 390.160 405.250 416.270 419.150 419.920 425.720 431.630 444.910 461.860 470.720 472.870 475.450 478.490 480.060 481.170 482.230 483.520 484.110 484.670 487.810 493.210 500.500 507.360 516.080 523.500 525.680 526.880 526.710 525.820 522.670 518.840 518.660 520.330 522.180 523.800 524.750 523.860 523.620 524.040 521.390 517.420 514.930 513.840 514.870 518.470 518.290 526.540 535.920 544.730 553.270 563.190 571.850 580.600 588.390 597.330 603.780 607.760 611.430 615.170 619.010 621.870 623.700 629.720 636.850 642.990 648.200 653.970 659.530 665.850 671.530 677.580 682.130 688.960 697.690 707.630 714.900 720.560 727.140 736.050 746.300 754.530 761.680 768.890 780.440 789.140 798.110 807.370 817.920 824.060 838.630 838.350 841.480 842.750 846.000 851.840 860.260 867.280 873.050 878.430 885.120 888.440 895.750 904.200 912.070 918.070 927.270 935.950 942.820 950.830 956.190 964.380 968.170 970.430 977.480 982.010 989.700 996.240 1002.200 1011.000 1025.200 1041.100 1052.100 1057.600 1066.700 1076.300 1084.000 1094.600 1103.100 1111.300 1120.600 1131.700 1140.800 1143.900 1140.200 1136.300 1131.800 1127.000 1135.200 1147.900 1158.800 1169.900 1182.800 1196.900 1212.200 1227.900 1250.200 1266.600
526.640 527.640 517.100 502.030 476.570 452.310 435.590 425.660 419.050 416.890 413.130 407.470 404.070 401.550 397.560 404.490 411.520 417.480 419.100 397.740 371.150 361.360 360.460 360.380 360.600 361.190 361.960 363.150 364.050 364.940 366.800 368.860 371.860 375.720 376.680 377.630 378.640 379.740 392.280 409.510 416.580 416.080 422.130 426.210 434.400 451.140 465.730 469.590 472.170 474.620 479.150 480.600 480.650 480.640 482.880 484.690 487.570 491.960 497.790 504.070 512.160 518.250 524.070 521.990 523.470 524.010 526.080 535.500 531.250 529.860 530.420 530.940 531.270 531.240 531.500 532.280 533.370 533.900 534.670 536.170 535.340 535.220 532.430 525.260 522.030 530.690 539.430 547.950 556.970 565.200 574.350 583.030 591.780 597.640 603.100 606.870 609.810 613.600 617.400 620.360 623.990 631.460 638.210 642.780 645.480 647.790 655.380 661.420 667.500 674.350 678.870 687.660 697.850 705.690 710.270 720.520 736.870 750.600 758.000 763.940 771.820 782.910 794.060 803.970 815.920 822.430 838.800 839.410 842.760 844.220 846.900 846.730 853.060 860.190 867.560 873.960 879.550 886.220 891.860 897.320 904.770 910.730 917.850 926.450 936.260 947.560 955.770 961.000 966.850 976.560 977.120 979.120 984.980 991.200 996.140 1002.400 1011.100 1025.200 1037.100 1047.900 1052.800 1061.400 1073.300 1079.900 1088.900 1098.800 1106.800 1118.700 1132.300 1137.500 1131.500 1126.700 1122.100 1118.200 1121.100 1132.900 1145.300 1156.500 1166.900 1180.800 1198.400 1213.400 1229.600 1251.700 1266.900
515.730 517.950 507.770 497.330 473.370 455.140 441.670 431.750 424.280 422.540 419.760 416.770 411.360 404.710 397.520 391.820 397.170 408.720 400.340 385.260 363.010 358.630 360.330 361.050 361.630 362.220 362.810 363.500 364.500 365.640 366.930 368.250 371.400 375.310 376.250 377.380 378.410 379.430 394.690 409.740 412.770 414.470 426.660 429.840 443.700 458.580 466.850 470.230 472.390 474.160 478.880 479.540 478.690 479.960 483.040 487.930 490.970 495.860 501.050 507.370 516.020 517.350 520.240 523.930 529.290 527.050 530.060 532.880 536.290 539.830 538.470 538.050 538.160 539.680 539.700 540.340 542.310 545.610 550.430 553.540 556.310 556.340 549.570 538.910 527.820 527.340 535.880 543.890 550.400 560.840 569.080 577.200 585.130 590.270 595.670 601.140 605.870 608.940 612.360 615.780 619.740 627.050 633.290 636.730 637.970 638.400 644.100 649.960 655.900 662.580 668.880 673.890 683.610 693.360 700.140 718.140 734.140 749.710 761.320 768.480 775.130 784.560 796.060 807.960 818.550 833.950 834.860 839.620 842.610 846.960 849.640 852.850 854.670 859.030 866.870 874.810 882.670 888.020 893.900 899.840 904.860 913.250 920.600 930.360 936.260 945.460 958.960 967.500 975.700 979.270 982.960 985.460 991.320 997.650 1001.300 1004.800 1010.800 1022.200 1032.900 1045.200 1051.400 1061.600 1070.300 1077.700 1085.400 1099.200 1112.500 1127.400 1131.900 1125.800 1117.700 1112.800 1109.900 1109.500 1119.600 1129.900 1143.200 1155.300 1167.200 1181.800 1199.100 1215.600 1233.200 1250.500 1266.200
503.890 498.600 490.000 483.440 480.480 467.750 458.130 454.190 455.920 455.570 448.810 430.460 422.950 418.170 410.290 401.160 388.500 386.200 376.590 371.090 361.680 358.900 360.410 361.200 361.980 362.760 363.550 364.300 365.100 366.500 367.570 368.860 372.430 375.950 377.000 377.910 378.740 379.900 395.840 410.430 412.450 414.150 429.520 436.420 451.540 461.470 466.440 469.780 471.340 472.770 475.250 477.660 480.470 482.850 486.800 492.220 493.350 498.520 501.470 509.620 520.470 518.010 513.990 520.610 527.350 532.980 537.150 540.030 542.020 545.620 550.950 548.680 548.510 550.180 550.090 550.140 551.490 555.310 563.760 561.730 560.580 561.060 565.450 552.950 537.480 527.430 532.380 541.430 546.710 555.810 564.920 572.680 580.180 584.020 588.110 598.100 604.190 606.830 609.180 613.140 616.430 621.930 626.530 629.040 630.740 634.480 644.980 653.500 658.280 662.720 669.200 676.880 685.400 690.900 702.770 717.730 734.180 751.220 764.400 773.370 782.120 788.980 797.570 810.230 823.460 830.690 835.530 839.360 842.940 848.950 855.270 860.240 864.230 868.750 873.220 876.650 885.180 894.310 900.020 902.960 906.640 914.880 923.220 932.710 941.550 951.060 959.020 968.440 977.880 984.730 989.630 992.700 998.520 1003.800 1007.800 1012.500 1019.800 1026.400 1039.900 1050.500 1059.800 1066.200 1070.000 1078.600 1089.300 1104.200 1120.600 1124.300 1117.100 1108.900 1103.300 1100.200 1097.000 1105.800 1115.400 1126.000 1141.700 1153.500 1165.000 1180.900 1199.300 1215.000 1230.900 1247.900 1264.900
482.150 481.820 466.750 464.540 477.390 480.730 477.550 481.540 481.260 476.480 462.370 454.710 443.770 430.780 426.120 426.300 406.570 386.520 378.400 370.520 360.260 359.100 360.300 360.830 361.640 362.440 363.250 364.050 365.190 366.880 368.170 369.380 374.620 375.960 376.960 377.960 378.960 379.970 396.600 409.030 412.420 415.220 431.780 436.990 442.760 449.350 458.690 465.880 471.160 473.960 476.940 479.720 483.270 486.470 493.300 494.570 492.490 495.010 499.760 508.890 513.370 510.740 508.040 514.240 525.290 529.780 543.540 549.730 551.530 553.090 556.760 557.960 560.720 562.300 562.350 562.350 563.420 567.560 564.130 562.440 561.350 561.060 562.150 564.340 548.330 531.710 529.600 538.100 543.910 552.220 560.700 568.550 574.150 579.670 587.740 592.820 596.870 598.190 601.900 603.710 610.860 613.490 622.820 633.340 636.100 644.580 653.740 661.350 666.810 670.730 674.270 684.780 697.200 706.670 712.690 724.280 737.040 751.800 767.200 778.440 787.000 794.850 804.040 813.190 814.550 824.020 833.230 840.110 846.070 861.110 870.820 878.700 883.950 889.010 892.020 895.680 900.290 905.830 912.470 919.270 926.150 932.370 938.450 943.820 948.830 953.640 961.710 973.020 986.020 993.320 1000.900 1002.300 1003.700 1011.000 1016.200 1021.200 1029.200 1038.600 1047.300 1058.900 1069.900 1075.300 1082.600 1089.400 1101.400 1111.600 1113.300 1108.100 1099.800 1092.900 1089.200 1087.100 1088.900 1099.600 1110.300 1123.200 1137.100 1149.700 1162.900 1179.300 1200.300 1217.700 1234.400 1250.400 1264.200
466.490 465.000 447.480 448.430 464.420 466.590 463.920 464.180 463.740 465.860 450.040 437.250 435.180 434.250 427.100 420.860 412.120 396.890 376.560 360.330 358.860 359.170 360.980 361.500 361.570 361.880 362.680 363.420 365.030 367.030 367.700 368.990 375.580 376.430 377.260 378.090 378.920 379.750 393.020 406.270 411.120 416.380 431.590 440.710 443.550 445.160 449.540 457.400 466.860 471.760 476.830 481.660 485.700 494.410 495.660 491.400 489.270 489.990 496.110 501.340 503.990 501.970 503.330 507.830 521.180 527.300 534.500 542.490 545.220 550.260 558.520 564.760 562.560 572.080 573.200 571.300 571.450 571.790 564.310 563.220 562.130 561.080 562.140 563.230 558.060 540.450 530.090 533.740 539.670 547.060 557.040 564.090 569.400 581.120 583.830 586.840 589.940 594.150 600.540 604.880 615.380 623.870 632.110 641.710 643.780 648.660 660.010 670.650 677.860 686.690 697.680 705.360 712.640 722.970 730.290 732.940 737.690 749.570 769.440 779.990 788.450 797.270 808.950 817.420 823.050 832.720 839.840 843.110 848.820 860.400 873.620 883.970 895.440 905.330 914.210 920.470 925.230 930.520 937.790 944.520 952.270 960.800 967.680 973.810 977.040 984.840 990.800 994.890 993.250 1003.400 1014.300 1013.200 1010.700 1021.100 1030.300 1038.800 1043.900 1053.100 1064.200 1075.500 1081.900 1094.800 1103.800 1108.900 1113.400 1108.000 1100.400 1092.800 1087.400 1082.600 1080.000 1075.400 1082.700 1095.300 1106.900 1118.800 1131.100 1146.900 1164.400 1182.300 1202.000 1219.700 1237.500 1255.100 1255.700
454.890 450.890 433.050 444.680 459.040 454.810 454.900 455.880 452.050 449.780 445.770 429.240 419.560 418.030 411.910 407.590 397.040 382.060 364.330 359.720 358.480 359.680 361.130 362.630 363.040 363.110 362.850 363.760 365.830 367.900 369.860 371.160 374.740 376.450 377.390 378.180 379.080 381.200 393.080 405.780 408.740 416.150 429.450 442.000 446.510 447.720 448.430 454.220 461.450 468.110 476.020 482.270 488.560 491.630 487.480 485.420 484.340 485.080 489.550 495.070 497.290 497.550 502.310 504.780 517.560 529.030 531.780 533.690 536.730 539.750 550.010 554.880 558.590 559.390 560.560 563.520 566.490 566.170 564.710 563.660 562.690 561.720 562.200 563.240 563.600 551.040 539.750 538.620 542.050 551.720 558.540 562.020 574.800 581.630 584.980 589.520 592.780 598.350 603.130 612.290 619.840 631.720 640.740 650.790 653.240 661.260 670.540 679.730 688.700 700.230 710.780 717.370 726.140 738.560 744.820 745.460 746.700 753.390 768.740 779.620 788.600 798.720 810.270 826.840 835.270 842.450 847.620 851.640 854.830 858.650 870.260 881.910 893.830 907.130 919.220 930.640 940.890 953.850 956.150 962.930 975.500 989.620 1005.000 1001.800 1009.800 1022.000 1024.000 1028.200 1034.800 1016.300 1025.100 1026.500 1028.100 1030.300 1041.400 1051.000 1062.000 1078.200 1088.900 1102.700 1110.900 1118.600 1116.800 1115.200 1104.000 1094.700 1086.600 1081.000 1075.100 1070.600 1067.800 1068.100 1075.200 1087.000 1100.700 1112.600 1123.900 1145.900 1168.000 1186.200 1203.100 1219.500 1237.300 1251.200 1240.900
440.650 433.720 422.700 440.590 456.220 444.370 439.380 439.780 439.270 444.240 440.820 425.910 404.780 402.430 398.900 392.530 378.550 364.480 359.950 359.030 359.000 360.310 361.840 363.200 364.280 364.350 363.020 364.630 366.690 368.820 371.040 373.260 375.230 375.800 376.670 377.520 379.040 386.790 397.300 402.940 407.000 414.350 428.550 441.050 445.870 447.780 449.810 454.260 459.840 467.630 476.130 480.720 483.510 482.710 481.930 482.420 482.930 484.200 485.880 489.830 491.410 493.250 498.690 502.850 516.040 530.890 531.950 535.270 537.340 539.240 551.070 555.180 556.260 556.860 557.110 557.470 559.470 563.880 563.530 563.660 564.780 561.520 562.370 563.320 564.280 564.960 564.460 561.470 563.020 569.380 577.420 577.260 576.300 584.870 589.310 593.260 599.230 606.370 611.470 622.270 631.410 641.660 653.190 663.430 669.170 679.590 685.650 690.670 699.120 710.560 719.640 729.410 741.600 749.030 754.230 757.950 759.150 761.430 768.700 780.390 790.480 801.560 815.100 825.530 838.310 848.710 853.240 855.320 862.800 869.300 870.310 881.100 894.140 907.470 919.690 931.250 947.630 961.590 970.330 981.440 994.270 1001.000 1013.300 1023.100 1031.500 1039.600 1046.300 1050.800 1055.400 1053.900 1049.800 1045.900 1063.300 1076.500 1076.200 1071.100 1078.900 1095.000 1109.400 1116.700 1115.500 1109.400 1101.200 1094.800 1088.000 1080.600 1073.100 1068.600 1063.900 1057.800 1057.600 1062.900 1067.600 1078.600 1099.400 1110.800 1122.100 1146.600 1169.400 1186.300 1201.600 1217.800 1234.100 1237.000 1227.800
432.740 425.450 414.360 436.500 449.400 434.240 425.090 423.150 423.800 429.670 437.430 425.420 401.680 390.770 390.760 380.870 364.490 361.020 359.220 358.630 359.660 361.300 362.820 364.340 365.300 364.290 363.650 365.380 367.410 369.480 371.180 371.470 372.420 373.180 375.910 377.830 379.660 388.070 396.430 402.360 404.600 412.930 426.470 438.010 446.250 449.390 452.100 455.170 463.900 471.300 476.630 479.340 479.150 479.010 479.920 481.140 483.140 484.160 484.040 484.810 487.850 490.460 497.210 503.510 521.250 536.570 529.650 526.150 530.430 539.060 545.900 556.250 554.160 554.240 554.760 559.200 559.960 560.520 557.850 563.200 561.030 561.380 562.500 562.630 563.800 564.320 564.240 570.910 580.580 584.200 592.580 593.770 592.650 593.400 600.570 606.850 613.220 619.520 625.280 633.430 643.240 652.740 665.540 672.190 679.750 691.610 698.860 704.910 713.190 720.460 731.700 743.200 752.170 758.160 764.550 767.530 769.040 770.260 773.050 789.290 800.580 806.920 816.760 833.320 840.650 849.730 853.620 857.480 864.880 874.550 881.810 886.630 895.350 907.210 920.960 932.650 947.970 959.410 970.490 987.600 1004.000 1014.300 1024.600 1034.300 1044.900 1050.200 1052.400 1054.500 1055.800 1061.400 1069.700 1074.400 1071.200 1086.200 1091.400 1089.100 1097.800 1111.000 1115.300 1104.800 1096.200 1089.200 1084.500 1080.500 1075.700 1066.300 1057.500 1055.000 1053.000 1046.400 1051.100 1052.200 1061.900 1074.200 1098.300 1111.400 1124.300 1146.200 1165.900 1183.000 1199.200 1215.800 1227.300 1225.700 1209.500
424.150 417.290 411.500 429.830 443.040 433.040 412.880 412.580 417.720 421.680 428.400 421.540 398.900 378.080 377.890 364.550 361.970 359.640 358.560 359.260 360.570 362.440 364.120 365.450 365.270 363.820 364.330 365.470 366.810 368.160 369.170 368.840 371.320 373.920 376.270 378.230 381.100 388.320 393.680 399.940 402.780 411.060 422.680 435.410 445.660 453.770 458.140 462.140 466.770 473.200 477.290 477.280 476.910 477.920 479.340 481.410 483.160 482.790 482.620 484.330 486.470 489.040 497.710 506.390 518.650 525.340 519.590 514.720 526.360 537.000 541.430 544.760 548.820 551.620 554.440 553.860 548.360 549.180 555.430 565.160 560.510 561.780 563.730 563.370 564.160 564.740 566.670 571.650 581.370 589.400 596.240 606.810 607.830 609.480 615.920 622.740 627.700 636.330 641.460 645.230 655.170 669.070 678.460 686.240 693.780 705.240 715.360 722.360 729.650 736.330 743.570 754.350 762.590 769.900 774.750 781.080 786.160 791.620 796.200 802.050 807.220 812.690 820.810 835.060 845.670 852.840 861.590 865.740 871.640 879.410 886.420 893.530 902.690 914.300 921.460 933.860 949.240 959.060 969.440 989.060 1006.800 1014.500 1020.600 1028.800 1033.400 1036.700 1039.000 1039.500 1040.800 1049.100 1061.900 1069.100 1078.700 1086.500 1097.000 1107.200 1115.200 1115.300 1104.900 1088.600 1078.300 1071.400 1070.200 1067.800 1060.700 1049.900 1044.600 1042.500 1035.800 1028.800 1037.400 1050.900 1064.700 1078.800 1096.500 1110.700 1127.600 1144.100 1161.100 1178.600 1197.000 1213.500 1217.900 1207.200 1192.600
417.690 406.020 408.000 422.620 433.430 425.720 407.860 403.250 407.190 410.270 408.040 400.890 387.520 370.830 364.400 362.970 360.420 359.050 358.770 359.860 361.850 363.690 365.380 366.140 364.570 363.500 364.890 365.710 366.470 367.230 368.210 368.920 371.290 373.990 375.860 377.470 379.030 382.330 388.100 393.820 401.600 406.710 419.870 433.470 444.540 457.070 463.110 467.010 470.590 475.400 476.300 475.650 479.270 479.650 479.900 481.500 481.880 480.960 481.790 482.960 484.710 487.620 490.130 500.210 506.430 507.530 506.090 514.830 523.540 528.940 531.830 537.210 543.290 547.440 548.880 546.680 541.870 548.070 554.560 563.060 559.990 562.760 564.940 566.350 568.920 573.340 576.630 583.360 592.370 601.790 607.540 610.640 617.750 623.450 623.980 627.640 632.580 641.200 649.380 659.030 666.950 676.940 693.010 702.060 707.630 715.820 727.040 733.950 739.140 745.140 756.240 765.010 774.160 785.230 793.280 798.280 801.330 804.040 808.410 815.550 822.420 827.720 833.310 844.080 858.140 864.620 871.990 879.020 886.900 894.810 898.800 905.830 914.730 924.000 934.260 941.880 952.130 962.140 969.650 986.210 998.570 1001.900 1006.000 1016.000 1021.500 1024.400 1025.900 1026.600 1029.500 1040.000 1051.400 1058.700 1066.800 1077.300 1085.800 1094.800 1097.800 1101.400 1087.900 1070.900 1060.400 1059.400 1060.000 1055.600 1046.400 1038.600 1033.800 1030.400 1023.400 1028.200 1041.800 1055.900 1068.500 1082.600 1095.500 1109.000 1125.800 1141.300 1158.700 1177.100 1195.400 1211.000 1203.500 1189.000 1173.700
406.330 397.570 405.570 413.840 413.450 410.560 405.930 397.470 395.420 395.940 390.420 380.750 366.590 364.110 362.910 361.670 360.100 358.730 359.330 360.950 363.160 365.040 366.440 365.830 364.350 363.790 365.100 366.210 367.210 368.210 369.220 370.130 371.170 372.420 373.880 376.200 378.140 379.240 384.580 389.130 395.890 404.390 418.370 431.140 444.460 457.580 466.240 469.820 471.070 471.180 470.410 470.040 472.610 475.460 474.930 474.230 475.450 477.020 479.220 481.130 484.190 487.360 488.230 492.030 494.560 497.080 502.860 510.720 515.770 516.240 520.600 527.690 534.550 537.060 537.370 537.580 534.710 545.650 551.820 560.610 568.140 571.130 576.500 580.200 585.230 588.200 593.030 595.410 603.850 611.820 617.270 625.280 626.630 630.840 645.510 644.870 643.750 645.020 656.980 667.810 674.420 687.240 701.880 713.360 719.390 726.040 734.830 744.600 752.460 761.150 769.370 779.720 788.480 798.750 805.350 811.630 816.220 821.700 828.600 835.110 839.760 843.630 847.870 856.860 870.550 881.910 890.730 896.570 907.030 914.300 922.320 923.110 928.480 934.870 943.200 956.180 966.790 975.850 981.430 985.180 985.010 985.980 997.020 1007.400 1011.600 1011.100 1006.900 1005.500 1018.300 1030.200 1037.700 1045.500 1057.700 1068.000 1072.100 1081.100 1088.800 1080.300 1064.900 1052.000 1045.000 1049.800 1050.400 1039.900 1034.500 1027.800 1020.700 1012.700 1016.300 1030.800 1042.200 1056.700 1070.100 1082.400 1093.300 1105.300 1120.900 1138.400 1158.000 1177.200 1192.600 1201.300 1187.700 1170.700 1150.200
394.590 394.750 399.740 401.890 401.150 399.880 392.130 388.660 380.910 377.800 371.750 365.810 364.180 363.090 361.830 360.540 359.250 358.560 359.930 362.510 364.850 366.310 367.420 365.310 363.980 364.140 365.740 366.780 367.810 368.850 369.910 371.460 372.250 373.040 373.850 375.100 376.060 379.850 386.220 391.330 398.950 407.220 418.110 430.100 442.020 452.860 460.720 463.720 462.690 459.490 459.540 461.120 462.780 464.360 467.640 471.630 478.810 478.370 475.020 474.700 480.830 485.390 487.550 491.110 491.650 492.680 495.680 498.760 503.920 507.480 515.540 522.230 527.900 529.650 531.130 530.900 535.470 543.530 550.360 560.840 568.090 573.170 578.960 586.720 597.100 601.070 605.020 606.380 610.860 613.520 616.120 622.990 629.600 636.700 645.140 650.050 658.060 655.490 665.770 676.200 684.890 698.180 714.180 726.660 732.090 738.170 745.140 754.380 763.130 770.830 784.670 792.050 805.050 812.660 819.150 824.230 832.730 841.280 847.640 853.210 861.220 869.230 868.140 874.590 883.350 892.520 899.900 912.580 924.210 934.530 937.840 942.510 946.470 950.930 957.400 965.760 970.420 970.770 971.380 970.490 969.920 976.560 989.930 995.800 996.850 992.960 990.790 1000.800 1013.500 1020.200 1026.300 1039.300 1053.100 1056.300 1059.200 1072.200 1078.700 1064.200 1049.300 1037.700 1032.000 1034.900 1030.900 1024.200 1017.600 1012.100 1005.800 1000.600 1015.100 1026.900 1039.700 1052.100 1067.300 1078.900 1088.900 1102.700 1118.200 1136.800 1157.800 1177.300 1189.600 1188.600 1179.800 1161.800 1141.600
389.560 392.390 393.960 392.180 388.080 382.420 375.980 372.430 369.230 367.540 365.000 364.020 363.380 362.320 361.060 359.780 358.520 359.250 361.190 363.810 365.910 367.490 366.020 364.680 363.710 364.000 365.330 366.330 367.280 368.360 369.530 370.770 371.510 372.240 372.980 373.720 375.520 379.260 389.920 398.520 404.760 420.440 425.000 429.210 437.740 446.190 452.550 456.260 461.070 463.400 464.980 468.130 470.360 474.170 475.860 476.830 483.740 490.940 489.470 484.490 483.260 483.900 485.170 487.230 488.480 491.300 496.230 498.650 500.060 501.510 507.620 516.470 525.400 527.350 527.600 531.110 536.150 545.390 552.010 565.700 575.360 579.830 586.580 591.770 595.690 605.550 607.960 611.250 616.340 619.890 627.050 633.910 640.250 649.060 657.160 662.990 663.580 667.430 670.050 682.040 696.980 713.270 731.680 745.400 754.150 758.080 761.840 769.870 773.500 782.550 795.390 807.940 819.240 827.470 836.820 846.650 853.310 858.510 864.490 871.870 880.790 885.850 885.120 889.890 896.770 906.520 918.970 929.420 937.560 941.090 946.350 951.850 956.210 958.840 956.800 955.020 953.590 951.390 951.690 952.760 960.150 970.310 977.120 978.510 977.150 975.350 984.240 997.910 1007.200 1012.100 1021.400 1034.500 1044.200 1044.800 1050.100 1059.400 1059.200 1048.100 1033.300 1022.700 1017.600 1019.800 1013.000 1001.500 994.130 993.370 989.630 1001.200 1013.400 1025.000 1035.600 1045.200 1059.600 1071.700 1084.200 1101.200 1118.800 1137.500 1155.500 1174.100 1181.800 1176.300 1164.500 1154.200 1137.600
383.950 384.480 383.020 380.910 373.810 370.380 369.330 368.000 366.260 364.630 363.660 362.570 361.750 361.640 360.380 359.050 358.700 359.960 362.060 364.480 366.430 366.820 365.090 364.120 363.600 364.580 365.690 366.780 367.990 369.170 370.450 371.160 371.860 372.760 373.580 374.340 375.930 385.270 392.010 400.880 409.520 425.640 437.060 445.350 455.140 460.050 462.720 465.090 465.990 467.430 469.840 471.560 472.110 473.250 476.640 479.030 482.810 490.080 494.520 498.050 497.090 494.080 494.370 497.630 501.730 504.590 507.270 510.420 514.650 515.430 513.710 514.650 518.630 525.730 530.380 534.230 541.400 549.430 564.930 573.650 585.700 592.410 595.920 597.770 601.640 608.710 617.030 617.530 624.660 631.480 639.900 647.850 654.270 660.490 668.720 675.240 676.520 680.570 675.270 687.030 702.070 727.080 740.290 753.490 766.810 775.290 775.900 778.630 785.900 803.420 813.460 825.470 835.080 845.410 853.490 861.140 867.430 873.640 879.900 888.550 895.250 898.280 902.500 907.340 915.490 926.430 935.040 942.100 949.410 956.550 951.400 952.270 951.970 943.350 937.840 936.700 936.560 936.900 937.840 943.480 953.930 962.210 962.230 958.600 959.250 964.770 974.320 985.930 993.040 1003.700 1016.300 1025.900 1030.400 1035.200 1040.800 1044.400 1043.000 1030.800 1016.200 1006.000 1003.700 1004.900 999.740 987.460 981.600 980.010 981.860 999.800 1011.400 1017.500 1026.800 1040.500 1054.000 1064.700 1080.100 1100.400 1119.300 1136.800 1153.800 1166.700 1165.600 1154.200 1140.800 1134.400 1127.000
377.840 376.770 371.840 369.570 369.010 368.000 366.930 365.480 364.350 363.420 362.360 361.280 360.200 359.900 359.320 358.280 359.350 360.920 362.800 364.900 367.260 366.380 364.680 363.720 363.980 364.950 366.110 367.280 368.430 369.540 370.920 371.690 372.450 373.220 373.990 374.740 377.120 384.050 392.220 399.680 412.250 426.350 440.230 453.290 460.910 463.830 465.930 466.670 467.960 468.890 469.710 471.410 473.550 474.810 476.220 479.160 483.730 489.730 494.920 498.710 505.520 505.940 506.380 508.480 511.890 514.190 516.920 522.190 526.860 528.270 528.310 529.200 531.310 534.010 538.110 542.570 547.840 566.870 575.970 579.800 587.740 595.410 598.150 602.610 609.720 618.580 620.770 631.340 635.200 640.920 650.590 659.500 667.330 675.200 679.520 684.540 687.040 691.010 688.470 696.120 712.550 727.460 742.540 754.060 768.740 777.880 779.880 793.440 807.460 818.130 828.210 837.430 849.600 855.920 864.440 872.870 878.340 880.190 884.500 890.120 895.280 899.870 908.540 918.760 928.500 936.640 943.120 947.700 952.450 955.040 947.870 940.610 929.810 920.410 915.790 918.990 921.760 922.700 925.470 937.820 946.860 949.940 943.580 945.560 948.270 955.720 966.270 968.140 973.200 990.970 1006.400 1012.200 1015.500 1026.900 1028.400 1025.700 1026.300 1012.700 998.810 993.360 993.320 992.880 986.670 975.330 971.660 968.530 978.510 993.490 1003.900 1007.300 1021.200 1036.300 1047.900 1061.300 1078.600 1100.800 1121.100 1137.000 1149.400 1157.200 1149.700 1134.200 1116.900 1112.700 1108.800
372.610 369.410 367.600 367.120 366.990 366.110 364.940 364.060 363.210 362.190 361.190 360.100 359.140 358.660 358.540 358.830 360.000 361.560 363.370 365.800 365.610 364.660 364.140 363.400 364.370 365.390 366.330 367.690 368.880 370.040 371.110 372.100 372.870 373.580 374.080 374.400 376.050 381.290 391.870 400.390 413.860 426.490 440.460 455.320 461.330 463.700 466.050 466.580 467.720 468.540 469.350 470.470 472.700 474.920 478.220 479.700 489.970 497.550 501.620 505.480 506.440 513.410 518.740 521.770 523.250 525.460 529.970 534.390 538.510 540.150 539.400 540.310 541.680 543.160 546.530 550.140 561.820 571.730 573.600 576.680 581.270 587.430 590.800 596.680 600.270 607.120 613.990 625.210 636.590 644.810 655.360 664.880 675.570 683.720 689.750 693.980 699.820 701.240 698.810 710.470 725.730 736.380 747.970 761.910 774.320 783.720 797.800 811.980 823.160 831.420 839.750 850.430 856.020 862.300 867.940 870.290 858.110 852.890 867.320 878.360 885.940 892.870 900.540 915.000 928.660 936.360 940.940 944.900 950.630 941.650 927.960 918.270 907.150 901.010 896.440 897.550 899.140 907.570 921.630 931.830 931.350 925.140 929.270 932.080 935.070 948.890 956.400 953.920 966.480 981.610 993.460 995.060 1000.600 1014.000 1013.500 1008.100 1003.600 995.180 989.590 984.250 984.340 983.310 977.030 970.360 965.830 962.270 971.420 978.580 984.620 994.980 1012.100 1028.700 1042.800 1059.900 1079.300 1101.800 1120.700 1135.200 1142.600 1145.400 1137.100 1126.700 1102.700 1092.900 1089.100
378.840 371.710 366.490 364.670 364.740 364.650 363.990 363.090 362.160 361.160 360.060 359.440 358.850 358.150 358.620 359.430 360.800 362.360 363.750 364.820 364.120 363.390 363.310 363.850 364.770 365.870 366.950 368.050 368.860 370.220 371.810 372.320 372.580 372.840 373.100 373.630 375.810 381.980 391.670 400.940 415.780 427.080 440.180 456.100 461.420 463.290 464.120 465.810 467.360 468.180 468.960 469.450 471.670 473.460 477.400 486.030 496.690 502.140 506.490 510.910 515.270 521.310 529.510 533.430 536.640 540.190 543.960 548.140 552.790 552.920 551.750 551.830 553.650 555.670 559.470 563.060 564.540 563.670 565.080 572.340 575.950 576.110 578.170 582.480 587.920 592.930 603.270 611.070 626.770 649.510 655.670 667.750 682.360 697.820 707.870 713.270 714.930 720.170 719.600 727.180 736.110 745.280 756.930 771.890 784.670 797.430 811.360 825.520 833.030 840.530 847.980 851.990 853.320 853.610 850.610 837.710 831.360 837.710 851.320 866.840 880.080 889.860 897.990 910.220 924.220 930.790 936.040 939.860 935.240 922.690 912.460 899.930 888.440 882.350 874.240 880.110 888.140 903.920 913.160 911.880 906.220 903.330 909.870 917.050 926.310 938.810 941.230 945.390 962.800 973.420 981.060 984.560 995.110 1004.800 998.950 993.640 989.170 984.620 981.380 975.450 975.690 975.010 969.790 965.820 960.390 957.070 963.820 966.980 976.070 991.920 1010.000 1027.800 1043.400 1060.500 1080.900 1102.100 1117.400 1128.500 1132.600 1130.600 1123.700 1101.700 1093.200 1080.800 1070.300
372.680 366.760 364.820 364.260 363.340 363.630 363.180 362.390 361.360 360.260 359.250 358.760 358.240 358.600 359.350 360.130 361.430 362.900 364.370 364.020 363.300 362.540 363.540 364.420 365.390 366.690 367.720 368.740 369.340 370.000 370.800 371.190 371.460 371.720 372.400 373.420 376.880 387.010 393.690 401.830 416.980 429.510 440.010 455.550 460.830 462.200 463.710 465.410 467.000 467.380 467.460 467.840 470.610 473.360 477.270 483.640 495.790 504.780 510.200 516.610 522.170 529.010 537.150 544.140 550.460 553.500 556.920 560.100 561.560 561.080 560.790 559.600 556.680 555.950 555.000 553.030 550.970 553.690 556.440 563.110 561.410 559.550 563.040 571.810 577.610 583.950 593.880 605.040 623.040 638.440 652.250 667.010 684.530 701.580 711.480 720.110 725.170 732.220 735.850 737.990 743.510 753.450 768.380 783.080 796.350 810.400 820.520 826.580 831.550 836.440 839.420 837.530 831.520 824.180 816.300 815.080 824.980 834.260 843.930 859.270 876.390 886.180 895.160 906.280 916.820 925.490 930.420 932.340 922.440 908.850 901.580 883.800 872.280 867.230 864.800 871.060 886.650 896.620 896.170 887.420 877.720 885.310 891.840 900.880 919.150 925.900 923.660 944.090 956.740 964.430 967.960 977.460 988.580 989.090 984.870 981.810 978.400 971.350 968.480 961.960 962.610 960.300 960.150 961.000 954.970 951.650 954.610 960.420 973.630 992.060 1011.500 1031.100 1047.100 1062.900 1081.800 1100.600 1112.000 1115.500 1114.900 1109.300 1098.700 1088.500 1082.800 1075.000 1054.500
364.980 364.660 363.910 363.910 363.240 362.350 362.490 361.700 360.810 359.740 358.630 358.070 358.430 359.110 359.800 360.880 362.050 363.520 363.950 363.220 362.490 362.130 363.500 364.880 366.010 366.450 366.980 367.520 368.030 368.660 369.490 370.010 370.330 371.400 373.150 374.820 383.910 392.700 397.240 404.670 419.890 432.710 442.770 456.330 460.870 462.310 463.740 465.190 465.630 465.720 465.150 464.710 470.260 473.860 478.710 486.020 496.270 511.340 519.220 525.360 531.470 537.420 545.350 550.140 554.020 556.410 559.430 563.930 565.740 562.080 557.590 553.390 548.840 544.810 540.690 536.960 538.710 544.870 548.530 546.870 545.130 554.820 562.860 567.520 573.210 579.890 588.100 599.340 612.650 627.410 642.710 660.630 678.460 696.730 708.570 717.790 726.230 735.440 739.170 743.630 749.960 764.180 780.270 793.180 802.520 807.830 812.660 819.190 826.610 830.400 827.790 816.290 808.280 797.980 796.540 807.770 820.210 829.550 838.240 850.590 868.040 880.220 890.090 899.190 906.790 909.550 916.400 920.490 911.520 899.080 887.760 875.000 862.120 856.110 857.600 868.960 882.740 880.790 871.150 863.940 865.100 874.920 884.510 896.450 913.990 911.250 918.630 936.170 951.300 955.180 959.110 969.440 980.210 977.770 969.630 969.270 962.160 950.230 952.800 949.710 951.110 949.780 954.240 956.790 951.130 946.490 946.870 951.470 967.220 986.200 1007.800 1032.700 1050.900 1064.300 1077.800 1090.100 1099.500 1096.800 1090.000 1086.400 1084.900 1078.800 1069.000 1059.800 1046.100
364.640 364.140 363.810 362.990 362.940 362.210 361.360 361.070 360.200 359.430 358.690 358.090 358.840 359.560 360.410 361.600 362.810 363.890 363.160 362.420 361.690 362.030 363.400 363.920 364.370 365.180 365.690 366.200 366.710 367.460 368.430 368.240 370.140 372.200 373.130 379.100 389.150 396.880 401.380 413.000 426.250 436.700 448.350 459.040 461.140 462.570 464.000 463.950 463.600 463.210 462.590 464.300 473.500 480.370 484.760 494.600 505.890 518.440 526.330 531.540 533.420 536.070 538.700 541.970 542.790 543.660 546.570 549.790 555.080 552.360 546.830 541.980 538.770 535.140 529.840 522.570 526.110 531.930 534.450 539.010 556.200 570.660 576.260 581.930 587.430 592.470 597.700 599.930 605.870 618.350 633.020 650.200 666.880 686.260 702.150 715.450 721.910 731.800 738.360 745.290 756.230 773.210 787.380 790.320 792.240 796.380 802.730 810.020 817.690 821.860 807.620 792.850 786.560 777.990 783.750 797.970 805.830 816.140 828.950 842.530 857.410 869.820 879.740 888.680 882.300 884.810 892.900 899.380 899.040 889.180 875.220 864.080 852.650 846.050 849.220 859.430 866.470 848.280 844.310 847.400 859.680 869.660 880.950 893.220 908.030 899.590 911.460 921.730 930.390 939.890 949.200 959.060 966.460 961.360 957.130 953.850 943.280 938.330 940.810 944.310 942.990 943.330 950.960 951.980 946.690 939.310 940.250 952.570 969.370 987.540 1008.400 1030.800 1050.700 1057.400 1066.100 1073.900 1079.300 1076.000 1068.500 1068.800 1070.500 1061.700 1049.000 1038.400 1029.900
364.550 363.830 363.260 362.970 362.060 361.950 361.110 360.380 359.700 358.970 358.250 358.470 359.220 359.960 361.080 362.350 363.500 362.960 362.360 361.610 360.880 361.930 362.350 363.550 365.020 366.670 367.120 367.580 368.030 368.310 367.960 369.060 371.280 373.470 378.110 390.520 396.650 400.860 411.050 421.780 433.460 444.860 455.980 460.950 461.800 462.930 462.670 462.260 461.620 460.870 460.100 464.480 478.260 485.050 494.260 503.710 512.230 521.840 525.360 523.780 521.290 526.630 527.750 530.780 531.530 532.770 536.200 538.580 540.220 535.030 525.690 530.850 530.840 525.560 518.190 513.090 518.620 523.300 535.160 549.590 570.980 581.970 586.870 592.380 597.900 604.630 614.260 618.920 624.260 625.500 634.080 648.260 664.040 679.500 693.710 705.640 716.830 724.210 735.130 742.590 755.620 771.440 777.740 779.340 782.720 788.790 796.250 805.330 813.310 805.580 787.400 771.550 767.200 759.530 768.920 776.340 784.910 796.620 815.790 834.460 848.930 860.460 870.010 869.940 857.680 872.420 883.180 885.280 885.330 880.320 863.910 851.770 842.200 837.610 843.760 845.930 839.760 832.450 834.210 844.410 855.940 864.910 876.390 888.650 899.830 890.790 897.690 901.500 914.590 928.100 938.130 947.810 952.360 946.770 942.880 934.730 924.560 929.750 937.610 937.620 935.510 940.010 945.250 945.930 941.740 932.010 937.750 955.640 974.290 993.490 1011.600 1028.800 1040.200 1041.200 1050.600 1057.100 1058.600 1057.100 1051.800 1049.500 1054.100 1043.200 1032.200 1018.200 1011.700
364.330 363.860 363.020 362.380 362.120 361.140 360.920 360.010 359.280 358.540 358.120 358.870 359.630 360.610 361.780 362.890 363.270 362.020 361.520 360.810 360.460 361.420 362.390 363.220 364.130 365.120 366.890 368.820 369.380 369.640 368.980 369.050 369.860 374.760 388.060 396.910 405.510 409.080 414.610 428.040 440.940 448.100 455.850 460.200 461.530 461.930 461.040 460.560 458.800 458.240 463.120 468.120 484.930 490.960 499.340 504.070 508.070 512.330 510.830 505.270 507.770 512.130 514.600 517.450 519.550 519.340 525.700 526.970 522.970 513.580 512.710 521.130 518.860 515.170 507.500 516.660 524.940 542.210 555.430 568.130 580.090 587.730 596.270 601.500 607.360 613.860 619.590 626.030 633.100 644.700 650.500 654.320 662.360 673.850 685.390 696.580 707.710 718.040 728.210 737.710 751.260 763.890 767.030 770.700 775.660 785.530 794.640 803.210 802.750 791.850 774.550 760.750 752.850 746.250 753.080 764.000 776.090 791.530 809.850 828.400 841.820 852.290 857.370 843.900 847.490 859.620 865.460 866.810 851.280 856.580 846.260 835.890 829.440 832.590 836.030 832.130 825.010 816.110 827.530 839.190 848.440 858.810 869.540 882.740 884.620 877.780 878.720 894.710 908.610 918.820 928.100 934.940 939.610 930.960 924.040 919.300 920.860 928.710 929.900 925.060 929.930 936.920 941.480 941.180 935.470 924.190 937.650 957.380 977.070 996.840 1013.200 1026.200 1025.100 1023.500 1032.000 1034.900 1033.300 1037.000 1034.300 1030.900 1037.400 1027.700 1017.800 1002.200 995.470
363.940 363.890 363.050 362.210 361.500 361.270 360.260 359.380 358.320 357.920 358.490 359.250 360.040 361.250 362.460 361.880 361.790 360.980 360.030 359.340 360.260 361.490 362.320 363.150 363.580 365.470 367.140 368.740 370.250 371.380 369.730 369.070 371.890 384.370 392.890 400.040 406.200 413.870 421.290 433.820 441.970 446.790 449.200 456.060 459.950 461.110 458.870 454.380 460.170 465.090 468.230 477.820 486.810 487.280 488.860 492.250 494.350 495.600 494.250 490.300 492.320 499.690 504.920 505.660 507.650 508.920 510.420 510.780 508.820 505.920 506.990 509.190 503.640 501.800 511.950 525.800 546.140 560.760 560.440 560.760 575.610 582.770 592.100 600.590 606.110 613.020 619.480 627.670 638.590 651.790 661.180 670.040 676.800 682.290 687.000 692.980 703.060 712.110 724.730 736.300 746.570 754.530 761.090 764.190 774.660 785.770 794.570 798.130 792.600 781.470 767.150 751.160 739.090 737.740 747.630 761.660 772.300 786.930 803.290 820.930 834.020 841.720 837.870 826.600 831.600 837.170 844.610 843.160 831.520 824.840 818.640 819.560 816.780 824.960 826.370 815.640 800.870 810.800 822.800 832.450 841.060 853.890 864.360 873.120 868.020 863.730 871.600 886.060 899.910 906.340 911.460 923.880 928.930 920.610 912.660 908.620 915.830 917.300 913.640 920.930 928.370 934.850 937.960 935.610 927.790 922.120 938.590 957.610 975.700 990.430 1005.500 1011.700 1008.100 1005.900 1008.700 1008.500 1012.900 1018.700 1017.500 1014.100 1020.000 1015.800 1005.300 994.970 984.530
362.790 363.750 363.080 362.240 361.400 360.630 360.290 358.820 357.810 358.100 358.890 359.630 360.590 361.790 361.840 360.850 360.020 359.550 358.800 360.230 362.200 361.370 363.260 364.690 364.380 366.170 367.880 369.560 371.390 371.440 370.340 370.330 379.150 390.960 396.460 403.410 409.610 415.290 424.350 432.870 439.780 443.620 446.040 450.440 456.770 455.850 456.850 460.840 463.050 466.620 472.540 482.220 483.470 482.030 481.250 483.620 484.740 484.120 481.930 477.430 486.210 493.390 499.910 502.140 502.810 499.640 500.140 500.330 502.170 501.510 502.400 501.100 494.650 504.060 524.790 536.540 541.840 542.400 550.600 558.350 575.280 585.520 595.020 601.010 609.940 615.780 621.520 629.310 643.630 654.960 666.250 675.470 683.180 688.630 697.340 705.820 711.820 719.960 729.290 740.310 744.770 750.640 757.850 766.970 779.320 787.390 789.380 786.730 780.710 770.440 749.070 741.240 725.810 734.340 745.520 756.280 766.320 779.790 796.070 812.930 824.250 827.250 806.200 807.120 814.460 823.610 829.450 827.660 817.740 806.470 799.930 800.430 805.130 810.990 804.200 792.660 794.140 808.650 818.210 825.150 833.200 842.980 853.630 856.600 853.990 858.470 866.830 877.240 889.480 894.700 899.590 911.060 917.160 910.050 903.540 901.010 899.800 902.390 912.440 923.390 930.260 933.610 933.680 929.770 919.430 921.070 937.450 953.770 969.370 984.340 991.960 993.840 990.380 988.500 987.360 989.500 999.140 1003.600 1001.400 1000.800 1003.000 1001.200 991.960 979.880 972.670
362.780 363.360 363.270 362.420 361.560 360.700 359.180 357.870 357.560 358.350 359.240 360.070 361.040 362.160 361.090 359.910 359.330 358.830 359.580 361.690 364.520 363.900 362.700 365.710 366.670 367.810 369.020 371.180 372.060 373.280 373.380 374.560 386.910 394.420 401.710 409.960 414.250 418.840 424.640 429.920 436.500 438.130 439.870 442.320 447.200 457.870 461.310 463.000 464.420 468.950 480.210 480.350 477.480 472.860 467.830 472.450 477.600 476.220 464.090 474.670 485.420 487.910 488.410 497.100 498.240 490.530 487.700 490.480 493.000 493.710 492.470 487.790 498.310 511.580 520.860 525.330 530.100 539.610 552.020 563.900 580.270 591.820 598.360 608.210 614.700 619.720 623.880 634.430 649.330 657.750 665.480 675.120 683.630 693.380 706.140 713.180 720.200 727.710 741.300 745.930 747.260 751.220 760.740 771.290 780.840 782.010 779.320 772.980 761.380 754.290 738.630 728.850 711.470 728.410 737.830 749.140 761.670 776.900 793.280 807.180 810.870 799.750 786.590 801.290 808.200 813.860 815.480 806.390 804.450 787.670 776.240 777.670 791.120 793.740 784.050 781.520 791.810 803.470 811.820 817.930 823.020 827.930 834.540 836.750 841.060 851.270 861.230 870.120 880.640 885.390 892.850 903.430 908.190 902.230 892.690 889.330 893.860 906.000 916.180 927.450 931.060 933.390 931.650 922.990 911.060 922.140 936.980 950.670 964.930 978.160 980.330 972.970 970.040 972.160 973.420 974.630 979.030 984.830 985.190 981.590 984.720 985.530 977.270 966.210 957.010
362.420 362.800 362.640 362.430 361.300 360.070 358.520 356.670 357.090 358.760 359.680 360.430 361.350 361.920 360.940 359.580 358.850 359.260 360.910 365.850 365.850 365.790 365.310 364.210 365.360 366.470 367.830 369.150 371.100 373.190 374.500 381.960 393.030 401.340 405.120 410.460 417.580 423.240 427.580 432.000 432.550 432.560 433.500 436.560 441.850 450.510 457.340 461.820 464.620 468.470 473.710 465.910 466.210 462.400 457.850 461.160 468.550 463.720 456.800 475.060 481.720 478.590 475.160 484.920 485.650 479.600 475.450 474.390 477.830 481.530 484.030 491.380 502.920 510.060 516.130 522.940 535.400 545.790 553.560 568.690 584.780 594.800 600.410 610.070 618.390 622.590 625.870 640.570 652.760 660.230 667.950 677.740 687.440 696.930 707.490 719.560 727.330 738.430 741.400 742.280 745.560 754.920 765.790 771.850 771.230 771.770 766.440 752.270 740.340 736.660 729.060 713.400 697.380 714.700 729.920 745.080 760.590 776.630 791.040 796.430 784.310 772.620 772.630 774.970 784.820 794.270 801.960 794.340 786.080 764.220 748.240 759.410 771.630 774.760 769.830 777.780 788.030 796.250 802.860 808.300 811.190 813.530 815.880 820.990 832.840 843.770 853.510 861.150 869.810 877.330 884.820 895.430 900.240 888.560 878.620 884.460 895.400 908.450 919.900 927.720 930.870 931.280 929.420 913.720 908.630 922.960 935.620 947.130 959.700 967.500 962.370 953.690 954.220 958.470 961.620 964.300 967.530 968.870 967.670 964.120 965.620 967.310 962.530 953.740 942.710
361.900 362.470 361.760 361.250 360.460 359.120 357.630 356.240 357.460 358.940 360.110 360.640 361.210 361.600 361.660 360.380 358.960 359.470 363.580 365.740 365.930 366.790 366.900 366.500 366.040 366.300 367.170 367.960 370.500 372.820 374.850 392.280 397.810 401.830 405.210 409.070 413.710 418.610 422.120 425.310 426.710 427.690 429.200 433.500 437.930 444.120 453.580 460.290 462.820 466.540 464.150 454.010 453.270 452.120 449.160 448.370 456.200 450.650 455.180 465.040 470.240 463.910 464.090 472.800 474.110 469.980 469.450 479.470 486.400 487.710 489.750 498.080 508.720 512.730 517.920 525.670 529.810 539.760 552.130 568.540 582.740 589.700 597.940 607.010 616.640 622.950 627.230 639.850 652.920 662.400 670.400 679.630 689.270 700.000 706.600 716.060 727.420 729.950 734.170 741.950 750.800 761.760 763.870 756.580 753.820 755.500 752.620 738.770 726.230 719.680 712.130 697.670 694.420 709.850 724.590 740.670 758.130 773.300 779.050 771.040 752.610 748.430 753.780 760.570 772.220 783.380 791.300 787.630 770.830 744.760 741.940 748.540 754.700 756.320 764.460 773.280 781.490 788.420 793.360 796.510 798.760 799.440 802.830 810.040 824.480 836.260 843.850 851.330 860.270 864.920 874.610 879.860 878.530 870.900 870.380 882.880 895.870 908.710 917.460 922.970 925.460 925.700 918.090 902.260 907.310 919.870 929.130 940.230 950.250 951.890 943.970 937.700 937.450 942.660 951.130 956.050 956.410 953.440 951.740 948.750 948.890 949.460 945.610 934.940 922.480
362.280 361.680 361.020 360.350 359.410 358.160 356.540 356.550 358.180 359.720 360.410 360.890 361.430 361.120 360.750 359.780 358.650 359.780 363.230 364.410 364.850 365.630 366.760 368.120 368.080 367.720 368.520 369.610 370.590 372.460 381.280 392.970 395.820 398.760 403.100 406.640 410.470 412.930 415.070 417.120 419.610 423.430 428.060 431.970 435.630 440.970 449.540 455.400 459.240 460.510 454.360 443.010 438.440 437.420 435.550 436.950 438.080 444.650 447.600 449.910 454.800 466.300 471.350 471.540 471.630 470.550 474.880 487.080 498.120 500.800 501.320 505.080 512.470 520.040 531.730 535.460 537.300 540.020 550.610 564.100 572.280 580.640 587.870 596.790 607.050 624.910 629.780 638.260 649.450 660.630 669.580 678.880 690.980 700.440 707.860 715.210 722.950 734.510 742.870 749.900 763.650 760.450 748.360 739.780 740.400 743.060 738.940 724.880 712.510 703.700 695.890 685.600 695.680 713.560 727.210 745.730 760.200 764.380 757.290 746.070 729.620 732.370 740.210 751.460 763.280 774.850 785.280 779.060 753.720 733.180 737.830 741.070 742.670 751.960 761.780 769.060 774.040 779.240 784.180 786.790 786.900 788.060 792.400 799.190 814.670 828.330 834.890 842.080 849.360 852.070 857.640 861.840 859.910 854.510 861.490 878.610 894.180 905.660 910.880 912.860 913.550 910.980 900.790 891.150 904.640 913.830 920.170 930.200 937.200 936.570 930.530 921.980 922.010 930.020 936.680 943.580 945.530 943.410 944.020 937.200 932.300 933.630 931.500 919.570 910.310
